# .PCD v0.7 - Point Cloud Data file format
VERSION 0.7
FIELDS x y z rgb
SIZE 4 4 4 4
TYPE F F F F
COUNT 1 1 1 1
WIDTH 950
HEIGHT 1
VIEWPOINT 0 0 0 1 0 0 0
POINTS 950
DATA ascii
2.163754 -0.08316195 -5.4836273e-06 4.978564e-39
2.1721001 -0.083417505 -5.4836273e-06 4.978564e-39
2.1847003 -0.086103395 -5.4836273e-06 4.978564e-39
2.4138513 -0.083462223 -5.8412552e-06 4.978564e-39
1.5486431 -0.075586915 -4.529953e-06 4.978564e-39
1.5570869 -0.073996909 -4.5895576e-06 4.978564e-39
1.5655757 -0.07428509 -4.6491623e-06 4.978564e-39
1.5741214 -0.074575208 -4.7087669e-06 4.978564e-39
1.5855919 -0.074964613 -4.529953e-06 4.978564e-39
1.5942529 -0.075258642 -4.529953e-06 4.978564e-39
1.6029725 -0.075554669 -4.5895576e-06 4.978564e-39
1.6146775 -0.075952046 -4.6491623e-06 4.978564e-39
1.6264784 -0.074424185 -4.6491623e-06 4.978564e-39
1.6353896 -0.074720778 -4.7683716e-06 4.978564e-39
1.6443619 -0.075019404 -4.7683716e-06 4.978564e-39
1.6564071 -0.075420305 -4.7087669e-06 4.978564e-39
1.6655035 -0.075723059 -4.6491623e-06 4.978564e-39
1.6746631 -0.074067362 -4.7683716e-06 4.978564e-39
1.6838735 -0.074367784 -4.6491623e-06 4.978564e-39
1.6931481 -0.074670307 -4.8875809e-06 4.978564e-39
1.7056007 -0.075076483 -4.7882399e-06 4.978564e-39
1.7150062 -0.075383261 -4.7683716e-06 4.978564e-39
1.7244774 -0.075692199 -4.7087669e-06 4.978564e-39
1.7340026 -0.074002832 -4.8875809e-06 4.978564e-39
1.7435951 -0.074309334 -4.8875809e-06 4.978564e-39
1.7564765 -0.074720912 -4.8875809e-06 4.978564e-39
1.7662066 -0.07503181 -5.1259995e-06 4.978564e-39
1.7760061 -0.07534492 -4.9471855e-06 4.978564e-39
1.7858621 -0.075659841 -4.8875809e-06 4.978564e-39
1.7957894 -0.075977035 -4.9471855e-06 4.978564e-39
1.8057742 -0.074248232 -5.0067902e-06 4.978564e-39
1.8158313 -0.074562877 -4.9471855e-06 4.978564e-39
1.8259472 -0.074879363 -4.8875809e-06 4.978564e-39
1.8361368 -0.075198166 -5.0067902e-06 4.978564e-39
1.8463863 -0.075518832 -5.0067902e-06 4.978564e-39
1.8532596 -0.07573387 -4.8875809e-06 4.978564e-39
1.8636302 -0.073971979 -5.0067902e-06 4.978564e-39
1.8740622 -0.074291408 -5.0067902e-06 4.978564e-39
1.8845718 -0.074613228 -5.0663948e-06 4.978564e-39
1.895144 -0.074936956 -5.1259995e-06 4.978564e-39
1.9057952 -0.075263098 -5.1259995e-06 4.978564e-39
1.9165101 -0.075591192 -5.1259995e-06 4.978564e-39
1.9236966 -0.075811252 -5.2452087e-06 4.978564e-39
1.934541 -0.076143302 -5.1259995e-06 4.978564e-39
1.9454513 -0.074336573 -5.2452087e-06 4.978564e-39
1.9527688 -0.074555762 -5.2452087e-06 4.978564e-39
1.963812 -0.074886568 -5.1856041e-06 4.978564e-39
1.9749227 -0.075219393 -5.364418e-06 4.978564e-39
1.9853697 -0.074664176 -5.2452087e-06 4.978564e-39
1.9973831 -0.073716804 -5.2452087e-06 4.978564e-39
2.0049391 -0.073938116 -5.2452087e-06 4.978564e-39
2.0125301 -0.074160442 -5.1259995e-06 4.978564e-39
2.0239875 -0.074496023 -5.1856041e-06 4.978564e-39
2.0355163 -0.074833691 -5.364418e-06 4.978564e-39
2.0432498 -0.075060204 -5.364418e-06 4.978564e-39
2.0549231 -0.075402096 -5.364418e-06 4.978564e-39
2.0666695 -0.075746149 -5.364418e-06 4.978564e-39
2.0745497 -0.07597696 -5.4836273e-06 4.978564e-39
2.0824671 -0.07620886 -5.364418e-06 4.978564e-39
2.0944188 -0.076558903 -5.364418e-06 4.978564e-39
2.1064463 -0.074663207 -5.364418e-06 4.978564e-39
2.1145155 -0.074894182 -5.364418e-06 4.978564e-39
2.1226239 -0.075126268 -5.364418e-06 4.978564e-39
2.1340451 -0.074545346 -5.364418e-06 4.978564e-39
2.1471829 -0.073554143 -5.6028366e-06 4.978564e-39
2.1554484 -0.073785231 -5.4836273e-06 4.978564e-39
2.163754 -0.074017435 -5.4836273e-06 4.978564e-39
2.1721001 -0.074250773 -5.4836273e-06 4.978564e-39
2.1973829 -0.072649114 -5.364418e-06 4.978564e-39
2.2058933 -0.075195558 -5.364418e-06 4.978564e-39
2.2144458 -0.07543467 -5.4836273e-06 4.978564e-39
1.5486431 -0.066203564 -4.529953e-06 4.978564e-39
1.5570869 -0.064585447 -4.5895576e-06 4.978564e-39
1.5655757 -0.064845383 -4.6491623e-06 4.978564e-39
1.5741214 -0.065107055 -4.7087669e-06 4.978564e-39
1.5855919 -0.065458283 -4.529953e-06 4.978564e-39
1.5942529 -0.063816458 -4.529953e-06 4.978564e-39
1.6029726 -0.064077653 -4.5895576e-06 4.978564e-39
1.6146775 -0.064428277 -4.6491623e-06 4.978564e-39
1.6264783 -0.06478177 -4.6491623e-06 4.978564e-39
1.6353897 -0.065048702 -4.7683716e-06 4.978564e-39
1.6443619 -0.065317467 -4.7683716e-06 4.978564e-39
1.6564072 -0.065678276 -4.7087669e-06 4.978564e-39
1.6655035 -0.065950759 -4.6491623e-06 4.978564e-39
1.6746631 -0.064264581 -4.7683716e-06 4.978564e-39
1.6838734 -0.064534336 -4.6491623e-06 4.978564e-39
1.6931481 -0.064805992 -4.8875809e-06 4.978564e-39
1.705601 -0.065170735 -4.8279762e-06 4.978564e-39
1.7150061 -0.065446198 -4.7683716e-06 4.978564e-39
1.7244775 -0.065723613 -4.7087669e-06 4.978564e-39
1.7340026 -0.064002544 -4.8875809e-06 4.978564e-39
1.7433299 -0.063737787 -0.00035401224 4.978564e-39
1.7564765 -0.064645827 -4.8875809e-06 4.978564e-39
1.7651011 -0.065762028 -0.0005327611 4.978564e-39
1.7760061 -0.065204836 -4.9869218e-06 4.978564e-39
1.7858621 -0.065486945 -4.8875809e-06 4.978564e-39
1.7957894 -0.065771095 -4.9471855e-06 4.978564e-39
1.8057742 -0.06400907 -5.0067902e-06 4.978564e-39
1.8158312 -0.06429024 -4.9471855e-06 4.978564e-39
1.825947 -0.064573057 -4.8875809e-06 4.978564e-39
1.8361368 -0.064857945 -5.0067902e-06 4.978564e-39
1.8463863 -0.065144494 -5.0067902e-06 4.978564e-39
1.8532596 -0.065336652 -4.8875809e-06 4.978564e-39
1.8638567 -0.066297635 -0.00074692519 4.978564e-39
1.8740622 -0.065918252 -5.0067902e-06 4.978564e-39
1.8852745 -0.064970151 -5.0544741e-06 4.978564e-39
1.895144 -0.064400338 -5.1259995e-06 4.978564e-39
1.9057952 -0.064691029 -5.1259995e-06 4.978564e-39
1.9165101 -0.064983465 -5.1259995e-06 4.978564e-39
1.9236966 -0.065179601 -5.2452087e-06 4.978564e-39
1.9345409 -0.065475561 -5.1259995e-06 4.978564e-39
1.9454513 -0.063632518 -5.2452087e-06 4.978564e-39
1.9527688 -0.063827358 -5.2452087e-06 4.978564e-39
1.963812 -0.064121395 -5.1856041e-06 4.978564e-39
1.9749227 -0.064417243 -5.364418e-06 4.978564e-39
1.9861184 -0.064715348 -5.2452087e-06 4.978564e-39
1.9973831 -0.065015286 -5.2452087e-06 4.978564e-39
2.0049391 -0.065216474 -5.2452087e-06 4.978564e-39
2.0125301 -0.065418594 -5.1259995e-06 4.978564e-39
2.0239875 -0.065723665 -5.1856041e-06 4.978564e-39
2.0355163 -0.066030636 -5.364418e-06 4.978564e-39
2.0432498 -0.066236556 -5.364418e-06 4.978564e-39
2.0557036 -0.065238386 -5.364418e-06 4.978564e-39
2.0666695 -0.064638637 -5.364418e-06 4.978564e-39
2.0745497 -0.064843222 -5.4836273e-06 4.978564e-39
2.0824671 -0.065048769 -5.364418e-06 4.978564e-39
2.0944188 -0.065359034 -5.4041543e-06 4.978564e-39
2.1064463 -0.063423313 -5.364418e-06 4.978564e-39
2.1145155 -0.063627422 -5.364418e-06 4.978564e-39
2.1226239 -0.063832529 -5.364418e-06 4.978564e-39
2.1348639 -0.064142138 -5.364418e-06 4.978564e-39
2.1471829 -0.064453751 -5.6028366e-06 4.978564e-39
2.1554484 -0.064662829 -5.4836273e-06 4.978564e-39
2.163754 -0.064872928 -5.4836273e-06 4.978564e-39
2.1721001 -0.06508404 -5.4836273e-06 4.978564e-39
2.1847005 -0.063102692 -5.4836273e-06 4.978564e-39
2.1973829 -0.068032086 -5.364418e-06 4.978564e-39
1.5486431 -0.054943547 -4.529953e-06 4.978564e-39
1.5570869 -0.055173993 -4.5895576e-06 4.978564e-39
1.5655757 -0.055405673 -4.6491623e-06 4.978564e-39
1.5741214 -0.055638898 -4.7087669e-06 4.978564e-39
1.5855922 -0.055951957 -4.5895576e-06 4.978564e-39
1.5942529 -0.054281306 -4.529953e-06 4.978564e-39
1.6029725 -0.054513477 -4.5895576e-06 4.978564e-39
1.6146777 -0.054825146 -4.6491623e-06 4.978564e-39
1.6264784 -0.055139355 -4.6491623e-06 4.978564e-39
1.6353896 -0.055376634 -4.7683716e-06 4.978564e-39
1.644362 -0.055615533 -4.8279762e-06 4.978564e-39
1.656407 -0.05398785 -4.7087669e-06 4.978564e-39
1.6655035 -0.054223999 -4.6491623e-06 4.978564e-39
1.6746631 -0.054461796 -4.7683716e-06 4.978564e-39
1.6838735 -0.0547009 -4.6491623e-06 4.978564e-39
1.6931481 -0.054941684 -4.8875809e-06 4.978564e-39
1.7056009 -0.05526498 -4.8279762e-06 4.978564e-39
1.7150062 -0.055509139 -4.8478446e-06 4.978564e-39
1.7244774 -0.05575503 -4.7087669e-06 4.978564e-39
1.7340026 -0.054002255 -4.8875809e-06 4.978564e-39
1.7435951 -0.054244906 -4.8875809e-06 4.978564e-39
1.7564764 -0.054570738 -4.8875809e-06 4.978564e-39
1.7662066 -0.054816864 -5.1259995e-06 4.978564e-39
1.7760062 -0.055064749 -5.0067902e-06 4.978564e-39
1.7858621 -0.055314053 -4.8875809e-06 4.978564e-39
1.7957895 -0.055565171 -4.9471855e-06 4.978564e-39
1.8057742 -0.055817734 -5.0067902e-06 4.978564e-39
1.8158312 -0.056072131 -4.9471855e-06 4.978564e-39
1.8259472 -0.054266751 -4.8875809e-06 4.978564e-39
1.8361368 -0.054517716 -5.0067902e-06 4.978564e-39
1.8463863 -0.05477016 -5.0067902e-06 4.978564e-39
1.8532597 -0.054939449 -5.1259995e-06 4.978564e-39
1.8636303 -0.05519487 -5.0067902e-06 4.978564e-39
1.8740622 -0.055451799 -5.0067902e-06 4.978564e-39
1.8838692 -0.054852296 -5.0783156e-06 4.978564e-39
1.895144 -0.053863719 -5.1259995e-06 4.978564e-39
1.9057952 -0.054118961 -5.1259995e-06 4.978564e-39
1.9165101 -0.054375734 -5.1259995e-06 4.978564e-39
1.9236966 -0.054547951 -5.2452087e-06 4.978564e-39
1.934541 -0.054807827 -5.1856041e-06 4.978564e-39
1.9454513 -0.055069275 -5.2452087e-06 4.978564e-39
1.9527688 -0.055244628 -5.2452087e-06 4.978564e-39
1.963812 -0.055509266 -5.1856041e-06 4.978564e-39
1.9749227 -0.055775523 -5.364418e-06 4.978564e-39
1.9861184 -0.056043819 -5.2452087e-06 4.978564e-39
1.9973831 -0.056313764 -5.2452087e-06 4.978564e-39
2.0049391 -0.056494836 -5.2452087e-06 4.978564e-39
2.0125303 -0.054491282 -5.2054725e-06 4.978564e-39
2.0239875 -0.054758221 -5.1856041e-06 4.978564e-39
2.0355163 -0.055026814 -5.364418e-06 4.978564e-39
2.0432498 -0.055206999 -5.364418e-06 4.978564e-39
2.0541425 -0.054574259 -5.364418e-06 4.978564e-39
2.0666695 -0.053531129 -5.364418e-06 4.978564e-39
2.0745497 -0.053709485 -5.4836273e-06 4.978564e-39
2.0824671 -0.053888679 -5.364418e-06 4.978564e-39
2.0944188 -0.054159179 -5.4240227e-06 4.978564e-39
2.1064463 -0.054431394 -5.364418e-06 4.978564e-39
2.1145155 -0.054614022 -5.364418e-06 4.978564e-39
2.1226239 -0.054797538 -5.364418e-06 4.978564e-39
2.1348639 -0.055074558 -5.364418e-06 4.978564e-39
2.1471829 -0.05535337 -5.6028366e-06 4.978564e-39
2.1554484 -0.055540439 -5.4836273e-06 4.978564e-39
2.163754 -0.055728421 -5.4836273e-06 4.978564e-39
2.1721001 -0.055917311 -5.4836273e-06 4.978564e-39
2.1849225 -0.056006629 -0.00031225738 4.978564e-39
2.2403569 -0.050450779 -5.6028366e-06 4.978564e-39
2.2666564 -0.050993487 -5.7220459e-06 4.978564e-39
2.3665538 -0.053054929 -5.8412552e-06 4.978564e-39
2.3711553 -0.050777294 -0.0042310124 4.978564e-39
1.5486431 -0.045560192 -4.529953e-06 4.978564e-39
1.5570869 -0.04388025 -4.5895576e-06 4.978564e-39
1.5655757 -0.044078022 -4.6491623e-06 4.978564e-39
1.5741214 -0.04427712 -4.7087669e-06 4.978564e-39
1.5855922 -0.044544369 -4.609426e-06 4.978564e-39
1.5942529 -0.044746149 -4.529953e-06 4.978564e-39
1.6029726 -0.044949304 -4.5895576e-06 4.978564e-39
1.6146775 -0.04522201 -4.6491623e-06 4.978564e-39
1.6264786 -0.045496952 -4.6491623e-06 4.978564e-39
1.6353897 -0.045704562 -4.7683716e-06 4.978564e-39
1.644362 -0.045913603 -4.8875809e-06 4.978564e-39
1.6564072 -0.044245824 -4.7087669e-06 4.978564e-39
1.6655035 -0.044451699 -4.6491623e-06 4.978564e-39
1.6746631 -0.044659004 -4.7683716e-06 4.978564e-39
1.6838734 -0.04486746 -4.6491623e-06 4.978564e-39
1.6931483 -0.045077372 -4.8875809e-06 4.978564e-39
1.705601 -0.045359217 -4.8279762e-06 4.978564e-39
1.7150062 -0.045572087 -5.0067902e-06 4.978564e-39
1.7244775 -0.04578644 -4.7087669e-06 4.978564e-39
1.7340026 -0.044001967 -4.8875809e-06 4.978564e-39
1.7435951 -0.044212688 -4.8875809e-06 4.978564e-39
1.7564764 -0.044495653 -4.8875809e-06 4.978564e-39
1.7662066 -0.044709396 -5.1259995e-06 4.978564e-39
1.7760061 -0.044924658 -5.0067902e-06 4.978564e-39
1.7858623 -0.045141164 -4.9670539e-06 4.978564e-39
1.7957894 -0.045359235 -4.9471855e-06 4.978564e-39
1.8057742 -0.045578569 -5.0067902e-06 4.978564e-39
1.8158312 -0.045799494 -4.9471855e-06 4.978564e-39
1.825947 -0.043960441 -4.8875809e-06 4.978564e-39
1.8361368 -0.044177502 -5.0067902e-06 4.978564e-39
1.8463863 -0.044395827 -5.0067902e-06 4.978564e-39
1.8532598 -0.044542238 -5.1259995e-06 4.978564e-39
1.8636303 -0.04476314 -5.0067902e-06 4.978564e-39
1.8740622 -0.044985354 -5.0067902e-06 4.978564e-39
1.8845718 -0.045209225 -5.0663948e-06 4.978564e-39
1.895144 -0.045434427 -5.1259995e-06 4.978564e-39
1.9057952 -0.045661308 -5.1259995e-06 4.978564e-39
1.9165101 -0.045889549 -5.1259995e-06 4.978564e-39
1.9236966 -0.046042632 -5.2452087e-06 4.978564e-39
1.934541 -0.04627363 -5.1856041e-06 4.978564e-39
1.9454513 -0.044365216 -5.2452087e-06 4.978564e-39
1.9527688 -0.044516221 -5.2452087e-06 4.978564e-39
1.9638119 -0.0447441 -5.1856041e-06 4.978564e-39
1.9749227 -0.044973385 -5.364418e-06 4.978564e-39
1.9861183 -0.045204412 -5.2452087e-06 4.978564e-39
1.9973831 -0.045436859 -5.2452087e-06 4.978564e-39
2.0049391 -0.045592785 -5.2452087e-06 4.978564e-39
2.0125303 -0.043563969 -5.364418e-06 4.978564e-39
2.0239875 -0.043792769 -5.1856041e-06 4.978564e-39
2.0355163 -0.044022996 -5.364418e-06 4.978564e-39
2.0432498 -0.044177439 -5.364418e-06 4.978564e-39
2.0549231 -0.044410542 -5.364418e-06 4.978564e-39
2.0666695 -0.044645123 -5.364418e-06 4.978564e-39
2.0745497 -0.044802502 -5.4836273e-06 4.978564e-39
2.0824671 -0.044960607 -5.364418e-06 4.978564e-39
2.0944188 -0.045199282 -5.453825e-06 4.978564e-39
2.1064463 -0.045439478 -5.364418e-06 4.978564e-39
2.1145155 -0.045600619 -5.364418e-06 4.978564e-39
2.1226239 -0.045762539 -5.364418e-06 4.978564e-39
2.1348639 -0.04600697 -5.364418e-06 4.978564e-39
2.1471829 -0.046252985 -5.6028366e-06 4.978564e-39
2.1554484 -0.046418045 -5.4836273e-06 4.978564e-39
2.1652849 -0.045636248 -0.00078922743 4.978564e-39
2.1721001 -0.046750579 -5.4836273e-06 4.978564e-39
2.1847005 -0.049302276 -5.4836273e-06 4.978564e-39
2.2403569 -0.043439426 -5.6028366e-06 4.978564e-39
2.3665538 -0.048212677 -5.8412552e-06 4.978564e-39
2.375916 -0.048393406 -5.8412552e-06 4.978564e-39
1.5486431 -0.036176842 -4.529953e-06 4.978564e-39
1.5570869 -0.034468792 -4.5895576e-06 4.978564e-39
1.5655757 -0.034638315 -4.6491623e-06 4.978564e-39
1.5741214 -0.034808971 -4.7087669e-06 4.978564e-39
1.585592 -0.035038039 -4.6491623e-06 4.978564e-39
1.5942529 -0.035210993 -4.529953e-06 4.978564e-39
1.6029725 -0.035385128 -4.5895576e-06 4.978564e-39
1.6146777 -0.035618871 -4.6491623e-06 4.978564e-39
1.6264786 -0.033926051 -4.6491623e-06 4.978564e-39
1.6353897 -0.034098085 -4.7683716e-06 4.978564e-39
1.644362 -0.034271285 -4.8875809e-06 4.978564e-39
1.6564074 -0.034503814 -4.7485032e-06 4.978564e-39
1.6655035 -0.034679409 -4.6491623e-06 4.978564e-39
1.6746631 -0.034856226 -4.7683716e-06 4.978564e-39
1.6838735 -0.035034027 -4.6491623e-06 4.978564e-39
1.6931481 -0.035213068 -4.8875809e-06 4.978564e-39
1.7056009 -0.035453457 -4.8279762e-06 4.978564e-39
1.7150062 -0.035635024 -5.0067902e-06 4.978564e-39
1.7244774 -0.035817854 -4.7087669e-06 4.978564e-39
1.7340026 -0.034001675 -4.8875809e-06 4.978564e-39
1.7435951 -0.034180466 -4.8875809e-06 4.978564e-39
1.7568251 -0.034748483 -5.0700688e-05 4.978564e-39
1.7662066 -0.034601912 -5.1259995e-06 4.978564e-39
1.7760062 -0.034784563 -5.0067902e-06 4.978564e-39
1.7858623 -0.034968268 -5.0067902e-06 4.978564e-39
1.7957894 -0.035153292 -4.9471855e-06 4.978564e-39
1.8057742 -0.0353394 -5.0067902e-06 4.978564e-39
1.8158313 -0.035526853 -4.9471855e-06 4.978564e-39
1.825947 -0.035715394 -4.8875809e-06 4.978564e-39
1.8361368 -0.03590532 -5.0067902e-06 4.978564e-39
1.8463863 -0.036096357 -5.0067902e-06 4.978564e-39
1.8532598 -0.03622447 -5.1259995e-06 4.978564e-39
1.8636303 -0.034331407 -5.0067902e-06 4.978564e-39
1.8740622 -0.034518901 -5.0067902e-06 4.978564e-39
1.8845719 -0.034707792 -5.0663948e-06 4.978564e-39
1.895144 -0.034897808 -5.1259995e-06 4.978564e-39
1.9057952 -0.035089239 -5.1259995e-06 4.978564e-39
1.9165101 -0.035281822 -5.1259995e-06 4.978564e-39
1.9236966 -0.035410982 -5.2452087e-06 4.978564e-39
1.9345411 -0.035605889 -5.1856041e-06 4.978564e-39
1.9454513 -0.033661164 -5.2452087e-06 4.978564e-39
1.9527688 -0.033787809 -5.2452087e-06 4.978564e-39
1.9638119 -0.033978935 -5.1856041e-06 4.978564e-39
1.9749227 -0.034171235 -5.364418e-06 4.978564e-39
1.9861184 -0.034365002 -5.2452087e-06 4.978564e-39
1.9973831 -0.034559965 -5.2452087e-06 4.978564e-39
2.0049391 -0.034690741 -5.2452087e-06 4.978564e-39
2.0125303 -0.034822125 -5.364418e-06 4.978564e-39
2.0239875 -0.035020415 -5.1856041e-06 4.978564e-39
2.0355163 -0.035219949 -5.364418e-06 4.978564e-39
2.0432498 -0.035353795 -5.364418e-06 4.978564e-39
2.0549231 -0.035555821 -5.364418e-06 4.978564e-39
2.0666695 -0.035759125 -5.364418e-06 4.978564e-39
2.0745497 -0.035895512 -5.4836273e-06 4.978564e-39
2.0824671 -0.036032539 -5.364418e-06 4.978564e-39
2.0939345 -0.036887038 -0.00045141028 4.978564e-39
2.1064463 -0.036447547 -5.364418e-06 4.978564e-39
2.1145155 -0.036587209 -5.364418e-06 4.978564e-39
2.1226239 -0.03672754 -5.364418e-06 4.978564e-39
2.1348639 -0.034672484 -5.364418e-06 4.978564e-39
2.1471829 -0.034877494 -5.6028366e-06 4.978564e-39
2.1554484 -0.035015043 -5.4836273e-06 4.978564e-39
2.163754 -0.03515327 -5.4836273e-06 4.978564e-39
2.1721001 -0.03529216 -5.4836273e-06 4.978564e-39
1.5486431 -0.024916818 -4.529953e-06 4.978564e-39
1.5570869 -0.025057336 -4.5895576e-06 4.978564e-39
1.5655757 -0.025198603 -4.6491623e-06 4.978564e-39
1.5741215 -0.025340818 -4.7087669e-06 4.978564e-39
1.5855922 -0.025531709 -4.6491623e-06 4.978564e-39
1.5942529 -0.025675839 -4.5696893e-06 4.978564e-39
1.6029726 -0.02582095 -4.5895576e-06 4.978564e-39
1.6146775 -0.026015738 -4.6491623e-06 4.978564e-39
1.6264784 -0.024283644 -4.6491623e-06 4.978564e-39
1.6353896 -0.024426011 -4.7683716e-06 4.978564e-39
1.644362 -0.024569353 -4.8875809e-06 4.978564e-39
1.6564071 -0.024761789 -4.7683716e-06 4.978564e-39
1.6655035 -0.024907107 -4.6491623e-06 4.978564e-39
1.6746631 -0.02505344 -4.7683716e-06 4.978564e-39
1.6838734 -0.025200583 -4.6491623e-06 4.978564e-39
1.6931481 -0.02534876 -4.8875809e-06 4.978564e-39
1.705601 -0.025547702 -4.8279762e-06 4.978564e-39
1.7150062 -0.025697961 -5.0067902e-06 4.978564e-39
1.7244775 -0.025849272 -4.7087669e-06 4.978564e-39
1.7340026 -0.024001388 -4.8875809e-06 4.978564e-39
1.7435951 -0.024148254 -4.8875809e-06 4.978564e-39
1.7564764 -0.024345467 -4.8875809e-06 4.978564e-39
1.7662066 -0.024494439 -5.1259995e-06 4.978564e-39
1.7760061 -0.024644477 -5.0067902e-06 4.978564e-39
1.7858623 -0.024795376 -5.0067902e-06 4.978564e-39
1.7957894 -0.02494736 -4.9471855e-06 4.978564e-39
1.8057742 -0.025100237 -5.0067902e-06 4.978564e-39
1.8158313 -0.025254214 -4.9471855e-06 4.978564e-39
1.8259472 -0.025409088 -4.8875809e-06 4.978564e-39
1.8361368 -0.025565097 -5.0067902e-06 4.978564e-39
1.8453735 -0.024748029 -0.00015225503 4.978564e-39
1.8532597 -0.025827253 -5.1259995e-06 4.978564e-39
1.8636303 -0.023899682 -5.0067902e-06 4.978564e-39
1.8740622 -0.024052454 -5.0067902e-06 4.978564e-39
1.8845718 -0.024206363 -5.0663948e-06 4.978564e-39
1.895144 -0.024361191 -5.1259995e-06 4.978564e-39
1.9057952 -0.024517171 -5.1259995e-06 4.978564e-39
1.9165101 -0.024674088 -5.1259995e-06 4.978564e-39
1.9236966 -0.024779333 -5.2452087e-06 4.978564e-39
1.9345411 -0.024938148 -5.1856041e-06 4.978564e-39
1.9454513 -0.02509792 -5.2452087e-06 4.978564e-39
1.9527688 -0.025205081 -5.2452087e-06 4.978564e-39
1.9638119 -0.025366804 -5.1856041e-06 4.978564e-39
1.9749227 -0.025529517 -5.364418e-06 4.978564e-39
1.9861184 -0.025693476 -5.2452087e-06 4.978564e-39
1.9973831 -0.025858443 -5.2452087e-06 4.978564e-39
2.0049391 -0.025969101 -5.2452087e-06 4.978564e-39
2.0125303 -0.026080273 -5.364418e-06 4.978564e-39
2.0239875 -0.02624806 -5.3048134e-06 4.978564e-39
2.0355163 -0.02641689 -5.364418e-06 4.978564e-39
2.0432498 -0.026530147 -5.364418e-06 4.978564e-39
2.0549231 -0.024487412 -5.364418e-06 4.978564e-39
2.0666695 -0.024651617 -5.364418e-06 4.978564e-39
2.0745497 -0.024761774 -5.4836273e-06 4.978564e-39
2.0824671 -0.024872452 -5.364418e-06 4.978564e-39
2.094419 -0.025039524 -5.4836273e-06 4.978564e-39
2.1064463 -0.025207654 -5.443891e-06 4.978564e-39
2.1151378 -0.026455015 -0.000371186 4.978564e-39
2.1226239 -0.025433799 -5.364418e-06 4.978564e-39
2.1348639 -0.023338005 -5.364418e-06 4.978564e-39
2.1471829 -0.023502013 -5.6028366e-06 4.978564e-39
2.1554484 -0.02361205 -5.4836273e-06 4.978564e-39
2.163754 -0.023722632 -5.4836273e-06 4.978564e-39
2.1721001 -0.023833744 -5.4836273e-06 4.978564e-39
2.2933528 -0.025448019 -5.6028366e-06 4.978564e-39
1.5486431 -0.015533466 -4.529953e-06 4.978564e-39
1.5576513 -0.014522895 -4.6014784e-06 4.978564e-39
1.5655757 -0.013870955 -4.6491623e-06 4.978564e-39
1.5741215 -0.013979036 -4.7087669e-06 4.978564e-39
1.5860969 -0.014799322 -0.0004109694 4.978564e-39
1.5942531 -0.014233655 -4.6491623e-06 4.978564e-39
1.6029724 -0.014343937 -4.5895576e-06 4.978564e-39
1.6146775 -0.014491978 -4.6491623e-06 4.978564e-39
1.6264783 -0.01464123 -4.6491623e-06 4.978564e-39
1.6353897 -0.014753941 -4.7683716e-06 4.978564e-39
1.644362 -0.01486742 -4.8875809e-06 4.978564e-39
1.6564072 -0.015019762 -4.7683716e-06 4.978564e-39
1.6655035 -0.015134808 -4.6491623e-06 4.978564e-39
1.6746631 -0.015250654 -4.7683716e-06 4.978564e-39
1.6838735 -0.015367143 -4.6491623e-06 4.978564e-39
1.6931481 -0.015484448 -4.8875809e-06 4.978564e-39
1.7056009 -0.015641944 -4.8279762e-06 4.978564e-39
1.7150062 -0.015760902 -5.0067902e-06 4.978564e-39
1.7244774 -0.015880687 -4.7087669e-06 4.978564e-39
1.7340026 -0.014001099 -4.8875809e-06 4.978564e-39
1.7435951 -0.014116039 -4.8875809e-06 4.978564e-39
1.7564764 -0.014270381 -4.8875809e-06 4.978564e-39
1.7662066 -0.014386967 -5.1259995e-06 4.978564e-39
1.7760062 -0.014504387 -5.0067902e-06 4.978564e-39
1.7858623 -0.01462248 -5.0067902e-06 4.978564e-39
1.7957895 -0.014741427 -4.9471855e-06 4.978564e-39
1.8057742 -0.014861066 -5.0067902e-06 4.978564e-39
1.8158312 -0.014981574 -4.9471855e-06 4.978564e-39
1.825947 -0.015102781 -4.8875809e-06 4.978564e-39
1.8361368 -0.015224876 -5.0067902e-06 4.978564e-39
1.8463863 -0.015347686 -5.0067902e-06 4.978564e-39
1.8532598 -0.015430041 -5.1259995e-06 4.978564e-39
1.8636303 -0.015554301 -5.0663948e-06 4.978564e-39
1.8740622 -0.015679294 -5.0067902e-06 4.978564e-39
1.8845718 -0.01580522 -5.0663948e-06 4.978564e-39
1.895144 -0.015931897 -5.1259995e-06 4.978564e-39
1.9057952 -0.016059518 -5.1259995e-06 4.978564e-39
1.9165101 -0.016187904 -5.1259995e-06 4.978564e-39
1.9236966 -0.016274013 -5.2452087e-06 4.978564e-39
1.9352663 -0.015131062 -5.1736833e-06 4.978564e-39
1.9454513 -0.014393862 -5.2452087e-06 4.978564e-39
1.9527688 -0.014476671 -5.2452087e-06 4.978564e-39
1.9638119 -0.014601638 -5.1856041e-06 4.978564e-39
1.9749227 -0.014727372 -5.364418e-06 4.978564e-39
1.9861183 -0.014854067 -5.2452087e-06 4.978564e-39
1.9973831 -0.014981542 -5.2452087e-06 4.978564e-39
2.0049391 -0.015067052 -5.2452087e-06 4.978564e-39
2.0125303 -0.015152956 -5.364418e-06 4.978564e-39
2.0239875 -0.015282611 -5.3048134e-06 4.978564e-39
2.0355163 -0.015413072 -5.364418e-06 4.978564e-39
2.0432498 -0.015500586 -5.364418e-06 4.978564e-39
2.0549231 -0.013419 -5.364418e-06 4.978564e-39
2.0666695 -0.013544109 -5.364418e-06 4.978564e-39
2.0745497 -0.013628038 -5.4836273e-06 4.978564e-39
2.0824671 -0.013712363 -5.364418e-06 4.978564e-39
2.094419 -0.013839656 -5.4836273e-06 4.978564e-39
2.1064465 -0.013967758 -5.6028366e-06 4.978564e-39
2.1145155 -0.014053697 -5.364418e-06 4.978564e-39
2.1226239 -0.014140056 -5.364418e-06 4.978564e-39
2.1348639 -0.014270418 -5.364418e-06 4.978564e-39
2.1471829 -0.014401626 -5.6028366e-06 4.978564e-39
2.1554484 -0.014489656 -5.4836273e-06 4.978564e-39
2.163754 -0.014578125 -5.4836273e-06 4.978564e-39
2.1734383 -0.013939963 -0.00046109725 4.978564e-39
2.1804867 -0.014756335 -5.4836273e-06 4.978564e-39
2.2933528 -0.018330827 -5.6028366e-06 4.978564e-39
1.5486431 -0.0061501167 -4.529953e-06 4.978564e-39
1.5565226 -0.0054751243 -4.5776369e-06 4.978564e-39
1.5655757 -0.0044312458 -4.6491623e-06 4.978564e-39
1.5751011 -0.0047072927 -0.00078477373 4.978564e-39
1.585592 -0.0046177856 -4.6491623e-06 4.978564e-39
1.5942531 -0.004698501 -4.6491623e-06 4.978564e-39
1.6029725 -0.0047797593 -4.5895576e-06 4.978564e-39
1.6146777 -0.0048888428 -4.6491623e-06 4.978564e-39
1.6264784 -0.0049988185 -4.6491623e-06 4.978564e-39
1.6353896 -0.0050818641 -4.7683716e-06 4.978564e-39
1.644362 -0.0051654805 -4.8875809e-06 4.978564e-39
1.6564071 -0.0052777356 -4.7683716e-06 4.978564e-39
1.6655035 -0.0053625051 -4.6491623e-06 4.978564e-39
1.6746631 -0.0054478659 -4.7683716e-06 4.978564e-39
1.6838734 -0.0055337017 -4.6491623e-06 4.978564e-39
1.6931481 -0.0056201373 -4.8875809e-06 4.978564e-39
1.705601 -0.0057361876 -4.8279762e-06 4.978564e-39
1.7150062 -0.0058238395 -5.0067902e-06 4.978564e-39
1.7244775 -0.0059121046 -4.8279762e-06 4.978564e-39
1.7340026 -0.0040008132 -4.8875809e-06 4.978564e-39
1.7435951 -0.0040838243 -4.8875809e-06 4.978564e-39
1.7564765 -0.0041952967 -4.8875809e-06 4.978564e-39
1.7662066 -0.0042794975 -5.1259995e-06 4.978564e-39
1.7760061 -0.0043643015 -5.0067902e-06 4.978564e-39
1.7858623 -0.0044495929 -5.0067902e-06 4.978564e-39
1.7957894 -0.0045354976 -4.9869218e-06 4.978564e-39
1.8057742 -0.0046219025 -5.0067902e-06 4.978564e-39
1.8158313 -0.0047089322 -4.9471855e-06 4.978564e-39
1.8259472 -0.00479647 -4.8875809e-06 4.978564e-39
1.8361368 -0.0048846491 -5.0067902e-06 4.978564e-39
1.8463863 -0.0049733445 -5.0067902e-06 4.978564e-39
1.8532597 -0.0050328267 -5.1259995e-06 4.978564e-39
1.8636303 -0.0051225713 -5.0663948e-06 4.978564e-39
1.8740622 -0.0052128439 -5.0067902e-06 4.978564e-39
1.8845719 -0.0053037913 -5.0663948e-06 4.978564e-39
1.895144 -0.0053952797 -5.1259995e-06 4.978564e-39
1.9057952 -0.0054874509 -5.1259995e-06 4.978564e-39
1.9165101 -0.0055801738 -5.1259995e-06 4.978564e-39
1.9236966 -0.0056423633 -5.2452087e-06 4.978564e-39
1.933816 -0.0048755486 -5.1975248e-06 4.978564e-39
1.9454513 -0.0036898097 -5.2452087e-06 4.978564e-39
1.9527688 -0.0037482632 -5.2452087e-06 4.978564e-39
1.9638119 -0.0038364753 -5.1856041e-06 4.978564e-39
1.9749227 -0.0039252294 -5.364418e-06 4.978564e-39
1.9861184 -0.0040146601 -5.2452087e-06 4.978564e-39
1.9973831 -0.0041046413 -5.2452087e-06 4.978564e-39
2.0049391 -0.0041649984 -5.2452087e-06 4.978564e-39
2.0125303 -0.0042256368 -5.364418e-06 4.978564e-39
2.0239878 -0.0043171579 -5.3346157e-06 4.978564e-39
2.0355163 -0.0044092489 -5.364418e-06 4.978564e-39
2.0432498 -0.0044710245 -5.364418e-06 4.978564e-39
2.0549231 -0.004564269 -5.364418e-06 4.978564e-39
2.0666695 -0.0046581021 -5.364418e-06 4.978564e-39
2.0745497 -0.0047210492 -5.4836273e-06 4.978564e-39
2.0824671 -0.0047842925 -5.364418e-06 4.978564e-39
2.094419 -0.0048797629 -5.4836273e-06 4.978564e-39
2.1064465 -0.0049758386 -5.6028366e-06 4.978564e-39
2.1145155 -0.0050402936 -5.364418e-06 4.978564e-39
2.1226239 -0.0051050643 -5.364418e-06 4.978564e-39
2.1348639 -0.0052028373 -5.364418e-06 4.978564e-39
2.1471829 -0.0053012418 -5.6028366e-06 4.978564e-39
2.1554484 -0.005367266 -5.4836273e-06 4.978564e-39
2.163754 -0.0054336144 -5.4836273e-06 4.978564e-39
2.1721001 -0.0055002812 -5.4836273e-06 4.978564e-39
2.1804867 -0.0055672731 -5.4836273e-06 4.978564e-39
2.2666564 -0.0039009731 -5.7220459e-06 4.978564e-39
2.2751887 -0.0023861211 -0.00054361933 4.978564e-39
2.3479731 -0.0093139112 -5.7220459e-06 4.978564e-39
1.5486431 0.0051099053 -4.529953e-06 4.978564e-39
1.5570869 0.0050593191 -4.5895576e-06 4.978564e-39
1.5655757 0.0050084633 -4.6491623e-06 4.978564e-39
1.5741215 0.0049572657 -4.7087669e-06 4.978564e-39
1.5855922 0.0048885443 -4.6491623e-06 4.978564e-39
1.5942531 0.0048366548 -4.6491623e-06 4.978564e-39
1.6029726 0.0047844169 -4.6491623e-06 4.978564e-39
1.6146775 0.0047142929 -4.6491623e-06 4.978564e-39
1.6264786 0.0046435934 -4.6491623e-06 4.978564e-39
1.6353897 0.0045902072 -4.7683716e-06 4.978564e-39
1.644362 0.0045364541 -4.8875809e-06 4.978564e-39
1.6564072 0.0044642901 -4.7683716e-06 4.978564e-39
1.6655036 0.0044097933 -4.8081079e-06 4.978564e-39
1.6746631 0.0043549198 -4.7683716e-06 4.978564e-39
1.6838735 0.0042997389 -4.6491623e-06 4.978564e-39
1.6931483 0.0042441734 -4.8875809e-06 4.978564e-39
1.7056009 0.0041695694 -4.8279762e-06 4.978564e-39
1.7150062 0.004113222 -5.0067902e-06 4.978564e-39
1.7244776 0.0040564802 -4.8279762e-06 4.978564e-39
1.7340026 0.0059994729 -4.8875809e-06 4.978564e-39
1.7435951 0.0059483899 -4.8875809e-06 4.978564e-39
1.7564765 0.005879791 -4.8875809e-06 4.978564e-39
1.7662066 0.0058279755 -5.1259995e-06 4.978564e-39
1.7760062 0.0057757879 -5.0067902e-06 4.978564e-39
1.7858623 0.0057233013 -5.0067902e-06 4.978564e-39
1.7957895 0.0056704348 -5.0663948e-06 4.978564e-39
1.804696 0.0046931333 -0.00082395569 4.978564e-39
1.8158312 0.0055637066 -4.9471855e-06 4.978564e-39
1.825947 0.0055098366 -4.8875809e-06 4.978564e-39
1.8361368 0.0054555722 -5.0067902e-06 4.978564e-39
1.8463863 0.0054009901 -5.0067902e-06 4.978564e-39
1.8532598 0.0053643868 -5.1259995e-06 4.978564e-39
1.8636303 0.0053091589 -5.0663948e-06 4.978564e-39
1.8740624 0.0052536041 -5.1259995e-06 4.978564e-39
1.8845718 0.0051976382 -5.0663948e-06 4.978564e-39
1.895144 0.0051413379 -5.1259995e-06 4.978564e-39
1.9057952 0.0050846171 -5.1259995e-06 4.978564e-39
1.9165101 0.0050275573 -5.1259995e-06 4.978564e-39
1.9236966 0.004989286 -5.2452087e-06 4.978564e-39
1.9345412 0.0049315346 -5.1856041e-06 4.978564e-39
1.9454513 0.0048734345 -5.2452087e-06 4.978564e-39
1.9527688 0.0048344657 -5.2452087e-06 4.978564e-39
1.963812 0.0047756578 -5.1856041e-06 4.978564e-39
1.9749227 0.004716489 -5.364418e-06 4.978564e-39
1.9861184 0.0046568671 -5.2452087e-06 4.978564e-39
1.9973831 0.0045968802 -5.2452087e-06 4.978564e-39
2.0049391 0.0045566419 -5.2452087e-06 4.978564e-39
2.0125303 0.0045162151 -5.364418e-06 4.978564e-39
2.0239878 0.0044552013 -5.364418e-06 4.978564e-39
2.0355163 0.0043938071 -5.364418e-06 4.978564e-39
2.0432498 0.0043526236 -5.364418e-06 4.978564e-39
2.0549231 0.0042904601 -5.364418e-06 4.978564e-39
2.0666695 0.004227906 -5.364418e-06 4.978564e-39
2.0745497 0.0041859411 -5.4836273e-06 4.978564e-39
2.0824671 0.0041437773 -5.364418e-06 4.978564e-39
2.094419 0.0040801307 -5.4836273e-06 4.978564e-39
2.1064465 0.004016079 -5.6028366e-06 4.978564e-39
2.1145158 0.0039731087 -5.4836273e-06 4.978564e-39
2.1226239 0.0039299289 -5.364418e-06 4.978564e-39
2.1348639 0.0038647475 -5.364418e-06 4.978564e-39
2.1471829 0.0037991442 -5.6028366e-06 4.978564e-39
2.1554484 0.003755128 -5.4836273e-06 4.978564e-39
2.163754 0.0037108948 -5.4836273e-06 4.978564e-39
2.1721001 0.0036664512 -5.4836273e-06 4.978564e-39
2.2666564 0.00080827996 -5.7220459e-06 4.978564e-39
2.2755105 0.00075523369 -5.6028366e-06 4.978564e-39
1.5486431 0.014493258 -4.529953e-06 4.978564e-39
1.5570869 0.014470776 -4.5895576e-06 4.978564e-39
1.5655757 0.014448171 -4.6491623e-06 4.978564e-39
1.5741214 0.014425417 -4.7087669e-06 4.978564e-39
1.5854037 0.014123042 -0.00099989469 4.978564e-39
1.5942531 0.014371812 -4.6491623e-06 4.978564e-39
1.6029727 0.014348595 -4.6491623e-06 4.978564e-39
1.6146777 0.014317429 -4.6491623e-06 4.978564e-39
1.6264784 0.014286007 -4.6491623e-06 4.978564e-39
1.6353896 0.014262278 -4.7683716e-06 4.978564e-39
1.644362 0.014238387 -4.8875809e-06 4.978564e-39
1.6564072 0.014206315 -4.7683716e-06 4.978564e-39
1.6655037 0.014182094 -4.8875809e-06 4.978564e-39
1.6746631 0.014157705 -4.7683716e-06 4.978564e-39
1.6838734 0.014133181 -4.6491623e-06 4.978564e-39
1.6950144 0.014822803 -0.00077592628 4.978564e-39
1.705601 0.014075327 -4.8279762e-06 4.978564e-39
1.7150062 0.014050283 -5.0067902e-06 4.978564e-39
1.7244775 0.014025064 -4.8279762e-06 4.978564e-39
1.7340026 0.015999759 -4.8875809e-06 4.978564e-39
1.7435952 0.015980603 -4.8875809e-06 4.978564e-39
1.7564764 0.01595488 -4.8875809e-06 4.978564e-39
1.7662066 0.015935447 -5.1259995e-06 4.978564e-39
1.7760061 0.015915876 -5.0067902e-06 4.978564e-39
1.7858623 0.015896194 -5.0067902e-06 4.978564e-39
1.7957896 0.01587637 -5.0663948e-06 4.978564e-39
1.8057742 0.01585643 -5.0067902e-06 4.978564e-39
1.8158313 0.015836345 -4.9471855e-06 4.978564e-39
1.8259472 0.015816145 -4.8875809e-06 4.978564e-39
1.8361368 0.015795795 -5.0067902e-06 4.978564e-39
1.8463863 0.015775327 -5.0067902e-06 4.978564e-39
1.8532597 0.015761599 -5.1259995e-06 4.978564e-39
1.8636303 0.015740888 -5.0663948e-06 4.978564e-39
1.8740624 0.015720056 -5.1259995e-06 4.978564e-39
1.8845719 0.015699068 -5.0663948e-06 4.978564e-39
1.895144 0.015677955 -5.1259995e-06 4.978564e-39
1.9057952 0.015656685 -5.1259995e-06 4.978564e-39
1.9165101 0.015635287 -5.1259995e-06 4.978564e-39
1.9236966 0.015620935 -5.2452087e-06 4.978564e-39
1.9345411 0.015599278 -5.1856041e-06 4.978564e-39
1.9454513 0.01557749 -5.2452087e-06 4.978564e-39
1.9527689 0.015562877 -5.364418e-06 4.978564e-39
1.963812 0.015540823 -5.1856041e-06 4.978564e-39
1.9749227 0.015518636 -5.364418e-06 4.978564e-39
1.9861183 0.015496276 -5.2452087e-06 4.978564e-39
1.9973831 0.015473782 -5.2452087e-06 4.978564e-39
2.0049391 0.015458691 -5.2452087e-06 4.978564e-39
2.0125303 0.015443531 -5.364418e-06 4.978564e-39
2.0239878 0.01542065 -5.364418e-06 4.978564e-39
2.0355163 0.015397628 -5.364418e-06 4.978564e-39
2.0432498 0.015382183 -5.364418e-06 4.978564e-39
2.0549231 0.015358873 -5.364418e-06 4.978564e-39
2.0666695 0.015335415 -5.364418e-06 4.978564e-39
2.0745497 0.015319676 -5.4836273e-06 4.978564e-39
2.0824671 0.015303865 -5.364418e-06 4.978564e-39
2.0944188 0.015279997 -5.4836273e-06 4.978564e-39
2.1064465 0.015255977 -5.6028366e-06 4.978564e-39
2.1145158 0.015239865 -5.4836273e-06 4.978564e-39
2.1226239 0.015223671 -5.364418e-06 4.978564e-39
2.1348639 0.015199229 -5.364418e-06 4.978564e-39
2.1471829 0.015174626 -5.6028366e-06 4.978564e-39
2.1554484 0.015158121 -5.4836273e-06 4.978564e-39
2.163754 0.015141533 -5.4836273e-06 4.978564e-39
2.1721001 0.015124866 -5.4836273e-06 4.978564e-39
2.2144458 0.015040301 -5.4836273e-06 4.978564e-39
2.4375625 0.010751642 -0.00082623173 4.978564e-39
1.5486431 0.023876609 -4.529953e-06 4.978564e-39
1.5570869 0.023882231 -4.5895576e-06 4.978564e-39
1.5655757 0.02388788 -4.6491623e-06 4.978564e-39
1.5741215 0.023893571 -4.7087669e-06 4.978564e-39
1.5855922 0.023901202 -4.6491623e-06 4.978564e-39
1.5933137 0.02314776 -0.00058809191 4.978564e-39
1.6029729 0.023912773 -4.7683716e-06 4.978564e-39
1.6146775 0.023920564 -4.6491623e-06 4.978564e-39
1.6264786 0.023928419 -4.6491623e-06 4.978564e-39
1.6353897 0.023934349 -4.7683716e-06 4.978564e-39
1.644362 0.023940323 -4.8875809e-06 4.978564e-39
1.656407 0.023948342 -4.7683716e-06 4.978564e-39
1.6655039 0.023954397 -4.8875809e-06 4.978564e-39
1.6746631 0.023960492 -4.7882399e-06 4.978564e-39
1.6838735 0.023966623 -4.6491623e-06 4.978564e-39
1.6931481 0.023972794 -4.8875809e-06 4.978564e-39
1.7056009 0.023981085 -4.8279762e-06 4.978564e-39
1.7150062 0.023987345 -5.0067902e-06 4.978564e-39
1.7244776 0.02399365 -4.8279762e-06 4.978564e-39
1.7340026 0.026000047 -4.8875809e-06 4.978564e-39
1.7435951 0.026012816 -4.8875809e-06 4.978564e-39
1.7564765 0.026029967 -4.8875809e-06 4.978564e-39
1.7662066 0.02604292 -5.1259995e-06 4.978564e-39
1.7760062 0.026055966 -5.0067902e-06 4.978564e-39
1.7858623 0.026069086 -5.0067902e-06 4.978564e-39
1.7957895 0.026082303 -5.0663948e-06 4.978564e-39
1.8057742 0.026095595 -5.0067902e-06 4.978564e-39
1.8158312 0.026108984 -4.9471855e-06 4.978564e-39
1.825947 0.026122451 -4.8875809e-06 4.978564e-39
1.8361368 0.026136016 -5.0067902e-06 4.978564e-39
1.8463863 0.02614966 -5.0067902e-06 4.978564e-39
1.8532598 0.026158813 -5.1259995e-06 4.978564e-39
1.8636303 0.026172617 -5.0663948e-06 4.978564e-39
1.8740624 0.026186507 -5.1259995e-06 4.978564e-39
1.8845718 0.026200498 -5.0663948e-06 4.978564e-39
1.895144 0.026214574 -5.1259995e-06 4.978564e-39
1.9057952 0.026228752 -5.1259995e-06 4.978564e-39
1.9165101 0.026243016 -5.1259995e-06 4.978564e-39
1.9236966 0.026252585 -5.2452087e-06 4.978564e-39
1.9345411 0.026267022 -5.1856041e-06 4.978564e-39
1.9454513 0.026281545 -5.2452087e-06 4.978564e-39
1.9527689 0.026291288 -5.364418e-06 4.978564e-39
1.9638119 0.02630599 -5.1856041e-06 4.978564e-39
1.9749227 0.026320782 -5.364418e-06 4.978564e-39
1.9861184 0.026335686 -5.2452087e-06 4.978564e-39
1.9973831 0.026350681 -5.2452087e-06 4.978564e-39
2.0049391 0.026360741 -5.2452087e-06 4.978564e-39
2.0124443 0.025752887 -4.5787903e-05 4.978564e-39
2.0239878 0.026386101 -5.364418e-06 4.978564e-39
2.0355163 0.026401449 -5.364418e-06 4.978564e-39
2.0432498 0.026411744 -5.364418e-06 4.978564e-39
2.0549231 0.026427282 -5.364418e-06 4.978564e-39
2.0666695 0.026442923 -5.364418e-06 4.978564e-39
2.0745497 0.026453413 -5.4836273e-06 4.978564e-39
2.0824671 0.026463952 -5.364418e-06 4.978564e-39
2.094419 0.026479864 -5.4836273e-06 4.978564e-39
2.1064465 0.026495878 -5.6028366e-06 4.978564e-39
2.1145158 0.02650662 -5.4836273e-06 4.978564e-39
2.1226239 0.026517414 -5.4836273e-06 4.978564e-39
2.1348639 0.026533708 -5.364418e-06 4.978564e-39
2.1471829 0.026550109 -5.6028366e-06 4.978564e-39
2.1554484 0.026561113 -5.4836273e-06 4.978564e-39
2.163754 0.02657217 -5.4836273e-06 4.978564e-39
2.1721001 0.02658328 -5.4836273e-06 4.978564e-39
1.5486435 0.035136633 -4.6491623e-06 4.978564e-39
1.5570869 0.035175975 -4.5895576e-06 4.978564e-39
1.5655757 0.035215531 -4.6491623e-06 4.978564e-39
1.5741215 0.035255346 -4.7087669e-06 4.978564e-39
1.5855922 0.035308797 -4.6491623e-06 4.978564e-39
1.5942531 0.035349157 -4.6491623e-06 4.978564e-39
1.6029729 0.035389788 -4.7683716e-06 4.978564e-39
1.6146775 0.035444327 -4.6888986e-06 4.978564e-39
1.6264783 0.035499316 -4.6491623e-06 4.978564e-39
1.6353897 0.035540838 -4.7683716e-06 4.978564e-39
1.644362 0.035582643 -4.8875809e-06 4.978564e-39
1.6564072 0.035638768 -4.7683716e-06 4.978564e-39
1.6655039 0.035681155 -4.8875809e-06 4.978564e-39
1.6746631 0.035723835 -4.8279762e-06 4.978564e-39
1.6838735 0.035766751 -4.6491623e-06 4.978564e-39
1.6931483 0.035809968 -4.8875809e-06 4.978564e-39
1.7056009 0.035867993 -4.8279762e-06 4.978564e-39
1.7150062 0.035911821 -5.0067902e-06 4.978564e-39
1.7244776 0.035955951 -4.8279762e-06 4.978564e-39
1.7340026 0.034000278 -4.8875809e-06 4.978564e-39
1.7435954 0.034038588 -4.9471855e-06 4.978564e-39
1.7564764 0.034090035 -4.8875809e-06 4.978564e-39
1.7662066 0.034128897 -5.1259995e-06 4.978564e-39
1.7760062 0.034168039 -5.0067902e-06 4.978564e-39
1.7858623 0.0342074 -5.0067902e-06 4.978564e-39
1.7957895 0.034247048 -5.0663948e-06 4.978564e-39
1.8057742 0.034286927 -5.0067902e-06 4.978564e-39
1.8158312 0.034327097 -4.9471855e-06 4.978564e-39
1.825947 0.034367494 -4.8875809e-06 4.978564e-39
1.8361368 0.034408197 -5.0067902e-06 4.978564e-39
1.8463863 0.03444913 -5.0067902e-06 4.978564e-39
1.8532598 0.034476582 -5.1259995e-06 4.978564e-39
1.8636303 0.034518003 -5.0663948e-06 4.978564e-39
1.8740624 0.034559667 -5.1259995e-06 4.978564e-39
1.8845718 0.03460164 -5.0663948e-06 4.978564e-39
1.895144 0.034643866 -5.1259995e-06 4.978564e-39
1.9057952 0.034686405 -5.1259995e-06 4.978564e-39
1.9162582 0.03579795 -0.00068177423 4.978564e-39
1.9236966 0.034757905 -5.2452087e-06 4.978564e-39
1.9345411 0.034801215 -5.1856041e-06 4.978564e-39
1.9454513 0.034844793 -5.2452087e-06 4.978564e-39
1.9527689 0.034874018 -5.364418e-06 4.978564e-39
1.963812 0.034918122 -5.2452087e-06 4.978564e-39
1.9749227 0.034962498 -5.364418e-06 4.978564e-39
1.9861184 0.035007212 -5.2452087e-06 4.978564e-39
1.9973831 0.035052203 -5.2452087e-06 4.978564e-39
2.0049391 0.035082381 -5.2452087e-06 4.978564e-39
2.0125303 0.035112701 -5.364418e-06 4.978564e-39
2.0239878 0.035158459 -5.364418e-06 4.978564e-39
2.0355163 0.035204504 -5.364418e-06 4.978564e-39
2.0432498 0.035235394 -5.364418e-06 4.978564e-39
2.0549231 0.035282016 -5.364418e-06 4.978564e-39
2.0666695 0.035328928 -5.364418e-06 4.978564e-39
2.0745497 0.035360403 -5.4836273e-06 4.978564e-39
2.0824671 0.035392024 -5.364418e-06 4.978564e-39
2.094419 0.035439756 -5.4836273e-06 4.978564e-39
2.1064465 0.035487793 -5.6028366e-06 4.978564e-39
2.1145158 0.035520025 -5.4836273e-06 4.978564e-39
2.1226242 0.035552409 -5.6028366e-06 4.978564e-39
2.1348639 0.035601292 -5.364418e-06 4.978564e-39
2.1471829 0.035650495 -5.6028366e-06 4.978564e-39
2.1554484 0.035683505 -5.4836273e-06 4.978564e-39
2.163754 0.035716679 -5.4836273e-06 4.978564e-39
2.1721001 0.035750013 -5.4836273e-06 4.978564e-39
2.2933531 0.038606688 -5.8412552e-06 4.978564e-39
2.3222051 0.034265388 -0.0003287353 4.978564e-39
1.5486434 0.044519987 -4.6491623e-06 4.978564e-39
1.5570869 0.04458743 -4.5895576e-06 4.978564e-39
1.5655757 0.044655241 -4.6491623e-06 4.978564e-39
1.5741215 0.044723503 -4.7087669e-06 4.978564e-39
1.585592 0.044815131 -4.6491623e-06 4.978564e-39
1.5942531 0.044884313 -4.6491623e-06 4.978564e-39
1.6029727 0.044953965 -4.7683716e-06 4.978564e-39
1.6146777 0.045047462 -4.7683716e-06 4.978564e-39
1.6264784 0.045141727 -4.6491623e-06 4.978564e-39
1.6353896 0.04521291 -4.7683716e-06 4.978564e-39
1.644362 0.045284577 -4.8875809e-06 4.978564e-39
1.6564072 0.045380797 -4.7683716e-06 4.978564e-39
1.6655037 0.045453459 -4.8875809e-06 4.978564e-39
1.6746631 0.045526624 -4.8875809e-06 4.978564e-39
1.6838734 0.045600191 -4.6491623e-06 4.978564e-39
1.6931481 0.045674279 -4.8875809e-06 4.978564e-39
1.705601 0.045773752 -4.8279762e-06 4.978564e-39
1.7150062 0.04584888 -5.0067902e-06 4.978564e-39
1.7244775 0.045924533 -4.8279762e-06 4.978564e-39
1.7340026 0.044000566 -4.8875809e-06 4.978564e-39
1.7435951 0.044070806 -4.9471855e-06 4.978564e-39
1.7564764 0.04416512 -4.8875809e-06 4.978564e-39
1.7662066 0.044236373 -5.1259995e-06 4.978564e-39
1.7760061 0.044308122 -5.0067902e-06 4.978564e-39
1.7858623 0.044380292 -5.0067902e-06 4.978564e-39
1.7957896 0.044452984 -5.0663948e-06 4.978564e-39
1.8057742 0.044526089 -5.0067902e-06 4.978564e-39
1.8158315 0.044599738 -5.0663948e-06 4.978564e-39
1.8259472 0.044673804 -4.8875809e-06 4.978564e-39
1.8361369 0.044748414 -5.0067902e-06 4.978564e-39
1.8463863 0.044823468 -5.0067902e-06 4.978564e-39
1.8532597 0.044873793 -5.1259995e-06 4.978564e-39
1.8636303 0.044949729 -5.0663948e-06 4.978564e-39
1.8740624 0.04502612 -5.1259995e-06 4.978564e-39
1.8845719 0.045103073 -5.0862632e-06 4.978564e-39
1.895144 0.045180485 -5.1259995e-06 4.978564e-39
1.9057952 0.045258474 -5.1259995e-06 4.978564e-39
1.9165101 0.045336932 -5.1259995e-06 4.978564e-39
1.9236966 0.045389552 -5.2452087e-06 4.978564e-39
1.9345412 0.04546896 -5.1856041e-06 4.978564e-39
1.9454513 0.045548845 -5.2452087e-06 4.978564e-39
1.9527689 0.04560243 -5.364418e-06 4.978564e-39
1.9630737 0.044815682 -5.2452087e-06 4.978564e-39
1.9749227 0.043604214 -5.364418e-06 4.978564e-39
1.9861184 0.043678738 -5.2452087e-06 4.978564e-39
1.9973831 0.043753725 -5.2452087e-06 4.978564e-39
2.0049391 0.04380402 -5.2452087e-06 4.978564e-39
2.0125303 0.043854557 -5.364418e-06 4.978564e-39
2.0239878 0.043930825 -5.364418e-06 4.978564e-39
2.0366302 0.043539789 -0.00090389285 4.978564e-39
2.0432498 0.044059042 -5.364418e-06 4.978564e-39
2.0549231 0.044136744 -5.364418e-06 4.978564e-39
2.0666695 0.044214934 -5.364418e-06 4.978564e-39
2.0745497 0.04426739 -5.4836273e-06 4.978564e-39
2.0824671 0.044320092 -5.364418e-06 4.978564e-39
2.094419 0.044399653 -5.4836273e-06 4.978564e-39
2.1064465 0.044479717 -5.6028366e-06 4.978564e-39
2.1145158 0.044533432 -5.4836273e-06 4.978564e-39
2.1226242 0.044587404 -5.6028366e-06 4.978564e-39
2.1348639 0.044668879 -5.364418e-06 4.978564e-39
2.1471829 0.04475088 -5.6028366e-06 4.978564e-39
2.1554484 0.044805899 -5.4836273e-06 4.978564e-39
2.163754 0.04486119 -5.4836273e-06 4.978564e-39
2.1721001 0.044916745 -5.4836273e-06 4.978564e-39
2.2942667 0.041865226 -0.0011449018 4.978564e-39
1.5486435 0.053903341 -4.6491623e-06 4.978564e-39
1.5570869 0.053998891 -4.5895576e-06 4.978564e-39
1.5655757 0.054094952 -4.6491623e-06 4.978564e-39
1.5741215 0.054191653 -4.7087669e-06 4.978564e-39
1.5855922 0.054321464 -4.6491623e-06 4.978564e-39
1.5942531 0.054419473 -4.6491623e-06 4.978564e-39
1.6029729 0.054518145 -4.7683716e-06 4.978564e-39
1.6146778 0.054650601 -4.7882399e-06 4.978564e-39
1.6264783 0.054784138 -4.6491623e-06 4.978564e-39
1.6353897 0.054884981 -4.7683716e-06 4.978564e-39
1.644362 0.05498651 -4.8875809e-06 4.978564e-39
1.6564074 0.055122819 -4.7683716e-06 4.978564e-39
1.6655039 0.05522576 -4.8875809e-06 4.978564e-39
1.6746631 0.055329408 -4.9471855e-06 4.978564e-39
1.6838735 0.055433631 -4.6491623e-06 4.978564e-39
1.6931483 0.055538591 -4.8875809e-06 4.978564e-39
1.7056009 0.055679511 -4.8279762e-06 4.978564e-39
1.7150062 0.055785943 -5.0067902e-06 4.978564e-39
1.7244776 0.055893119 -4.8279762e-06 4.978564e-39
1.7340026 0.054000851 -4.8875809e-06 4.978564e-39
1.7435954 0.054103024 -4.9471855e-06 4.978564e-39
1.7564764 0.054240212 -4.8875809e-06 4.978564e-39
1.7662066 0.054343842 -5.1259995e-06 4.978564e-39
1.7760062 0.054448217 -5.0067902e-06 4.978564e-39
1.7858623 0.054553188 -5.0067902e-06 4.978564e-39
1.7957895 0.05465892 -5.0663948e-06 4.978564e-39
1.8057742 0.054765258 -5.0067902e-06 4.978564e-39
1.8158313 0.054872371 -5.0663948e-06 4.978564e-39
1.825947 0.05498011 -4.8875809e-06 4.978564e-39
1.835261 0.054313581 -0.0008371427 4.978564e-39
1.8463863 0.055197805 -5.0067902e-06 4.978564e-39
1.8532598 0.055271007 -5.1259995e-06 4.978564e-39
1.8636304 0.055381458 -5.0663948e-06 4.978564e-39
1.8740624 0.055492569 -5.1259995e-06 4.978564e-39
1.8845719 0.055604503 -5.1259995e-06 4.978564e-39
1.895144 0.055717103 -5.1259995e-06 4.978564e-39
1.9057952 0.055830538 -5.1259995e-06 4.978564e-39
1.9165101 0.055944663 -5.1259995e-06 4.978564e-39
1.9236966 0.056021206 -5.2452087e-06 4.978564e-39
1.9345411 0.056136705 -5.1856041e-06 4.978564e-39
1.9454513 0.056252904 -5.2452087e-06 4.978564e-39
1.9527689 0.056330845 -5.364418e-06 4.978564e-39
1.9645506 0.055163026 -5.2690507e-06 4.978564e-39
1.9749227 0.05440636 -5.364418e-06 4.978564e-39
1.9861184 0.054518152 -5.2452087e-06 4.978564e-39
1.9973831 0.054630626 -5.2452087e-06 4.978564e-39
2.0049391 0.054706067 -5.2452087e-06 4.978564e-39
2.0125303 0.054781869 -5.364418e-06 4.978564e-39
2.0239878 0.054896265 -5.364418e-06 4.978564e-39
2.0355163 0.05501138 -5.364418e-06 4.978564e-39
2.0432498 0.055088598 -5.364418e-06 4.978564e-39
2.0549228 0.055205151 -5.364418e-06 4.978564e-39
2.0666695 0.055322442 -5.364418e-06 4.978564e-39
2.0745497 0.055401128 -5.4836273e-06 4.978564e-39
2.0824671 0.055480182 -5.364418e-06 4.978564e-39
2.094419 0.053359546 -5.4836273e-06 4.978564e-39
2.1064465 0.053471632 -5.6028366e-06 4.978564e-39
2.1145158 0.053546835 -5.4836273e-06 4.978564e-39
2.1226242 0.053622395 -5.6028366e-06 4.978564e-39
2.1348639 0.053736463 -5.4240227e-06 4.978564e-39
2.1471829 0.053851269 -5.6028366e-06 4.978564e-39
2.1554484 0.053928293 -5.4836273e-06 4.978564e-39
2.163754 0.054005697 -5.4836273e-06 4.978564e-39
2.1721001 0.054083474 -5.4836273e-06 4.978564e-39
1.5486435 0.065163366 -4.6491623e-06 4.978564e-39
1.5570869 0.065292634 -4.5895576e-06 4.978564e-39
1.5655757 0.065422602 -4.6491623e-06 4.978564e-39
1.5741215 0.065553434 -4.7087669e-06 4.978564e-39
1.5855922 0.065729059 -4.6491623e-06 4.978564e-39
1.5942531 0.065861665 -4.6491623e-06 4.978564e-39
1.6029729 0.065995157 -4.7683716e-06 4.978564e-39
1.6140902 0.065396331 -4.839897e-06 4.978564e-39
1.6264784 0.064426549 -4.6491623e-06 4.978564e-39
1.6353896 0.064557046 -4.7683716e-06 4.978564e-39
1.644362 0.064688444 -4.8875809e-06 4.978564e-39
1.6564072 0.064864844 -4.7683716e-06 4.978564e-39
1.6655037 0.06499806 -4.8875809e-06 4.978564e-39
1.6746631 0.065132201 -4.9471855e-06 4.978564e-39
1.6838734 0.065267079 -4.7683716e-06 4.978564e-39
1.6931481 0.065402903 -4.8875809e-06 4.978564e-39
1.705601 0.065585271 -4.8279762e-06 4.978564e-39
1.7150062 0.065723002 -5.0067902e-06 4.978564e-39
1.7244775 0.065861702 -4.8279762e-06 4.978564e-39
1.7340026 0.064001143 -4.8875809e-06 4.978564e-39
1.7435952 0.064135231 -4.9471855e-06 4.978564e-39
1.7564765 0.064315304 -4.8875809e-06 4.978564e-39
