# .PCD v0.7 - Point Cloud Data file format
VERSION 0.7
FIELDS x y z rgb
SIZE 4 4 4 4
TYPE F F F F
COUNT 1 1 1 1
WIDTH 1008
HEIGHT 1
VIEWPOINT 0 0 0 1 0 0 0
POINTS 1008
DATA ascii
0.38491321 0.59510875 0.60999864 1.0602497e-38
0.39487424 0.59496993 0.60999864 1.0602497e-38
0.40472633 0.59510434 0.60999858 1.0602497e-38
0.41487277 0.59487766 0.60999858 1.0602497e-38
0.42535803 0.5950973 0.60999858 1.0602497e-38
0.43490848 0.59486979 0.60999858 1.0602497e-38
0.4448716 0.59514552 0.60999858 1.0602497e-38
0.45328701 0.59491986 0.60999846 1.0602497e-38
0.35520726 0.60504681 0.60999864 1.0602497e-38
0.36514717 0.60497659 0.60999864 1.0602497e-38
0.37533471 0.60500532 0.60999864 1.0602497e-38
0.38498628 0.60499758 0.60999864 1.0602497e-38
0.39471588 0.60498911 0.60999864 1.0602497e-38
0.40485927 0.60504782 0.60999864 1.0602497e-38
0.41500589 0.60496831 0.60999858 1.0602497e-38
0.42517555 0.605066 0.60985655 1.0602497e-38
0.43503118 0.60496271 0.60999858 1.0602497e-38
0.44499978 0.60507935 0.60999858 1.0602497e-38
0.45335183 0.60490835 0.60999846 1.0602497e-38
0.35515076 0.61500359 0.60999864 1.0602497e-38
0.36514717 0.61492473 0.60999864 1.0602497e-38
0.37533465 0.61504847 0.60999864 1.0602497e-38
0.38496786 0.61500883 0.60999864 1.0602497e-38
0.39477947 0.61500323 0.60999864 1.0602497e-38
0.40464854 0.61499691 0.60999864 1.0602497e-38
0.41480392 0.61495709 0.60999864 1.0602497e-38
0.42529613 0.61498529 0.60999858 1.0602497e-38
0.4351539 0.61505866 0.60999858 1.0602497e-38
0.4448716 0.61500031 0.60999858 1.0602497e-38
0.45328695 0.61492032 0.60999846 1.0602497e-38
0.35506594 0.62495852 0.6099987 1.0602497e-38
0.36506093 0.62497377 0.60999864 1.0602497e-38
0.37533459 0.62509149 0.60999864 1.0602497e-38
0.38505888 0.62502211 0.60999864 1.0602497e-38
0.39484274 0.62501925 0.60999864 1.0602497e-38
0.40482172 0.62494433 0.60999864 1.0602497e-38
0.41507292 0.62494349 0.60999864 1.0602497e-38
0.42541671 0.62499601 0.60999864 1.0602497e-38
0.43496817 0.62502223 0.60999864 1.0602497e-38
0.44489413 0.62506247 0.60999858 1.0602497e-38
0.45335186 0.62491012 0.60999852 1.0602497e-38
0.35512221 0.63501394 0.6099987 1.0602497e-38
0.36514726 0.63502312 0.60999864 1.0602497e-38
0.37533465 0.63513452 0.60999864 1.0602497e-38
0.38487643 0.6349116 0.60999864 1.0602497e-38
0.39468375 0.63503367 0.60999864 1.0602497e-38
0.4047083 0.63501948 0.60999864 1.0602497e-38
0.41487166 0.63493007 0.60999864 1.0602497e-38
0.42517537 0.63499933 0.60999864 1.0602497e-38
0.43499047 0.63499784 0.60999864 1.0602497e-38
0.44497916 0.6349836 0.60999864 1.0602497e-38
0.45328695 0.6349209 0.60999864 1.0602497e-38
0.35515061 0.64496952 0.6099987 1.0602497e-38
0.36514726 0.64497119 0.60999864 1.0602497e-38
0.37533468 0.6451776 0.60999864 1.0602497e-38
0.38496774 0.64492488 0.60999864 1.0602497e-38
0.39474753 0.6450491 0.60999864 1.0602497e-38
0.40478393 0.64509118 0.60999864 1.0602497e-38
0.41490462 0.64491689 0.60999864 1.0602497e-38
0.42529613 0.64500999 0.60999864 1.0602497e-38
0.43500999 0.64496106 0.60999864 1.0602497e-38
0.44489408 0.64491761 0.60999864 1.0602497e-38
0.4533518 0.64491171 0.60999864 1.0602497e-38
0.35562122 0.65463865 0.6099987 1.0602497e-38
0.36511829 0.65502 0.6099987 1.0602497e-38
0.37527338 0.65512031 0.60999864 1.0602497e-38
0.38494962 0.65493518 0.60999864 1.0602497e-38
0.39481103 0.65506631 0.60999864 1.0602497e-38
0.40476447 0.65503836 0.60999864 1.0602497e-38
0.41490567 0.65500957 0.60999864 1.0602497e-38
0.42521554 0.65502274 0.60999864 1.0602497e-38
0.43503132 0.65493125 0.60999864 1.0602497e-38
0.44491395 0.65496796 0.60999864 1.0602497e-38
0.45328698 0.65492129 0.60999864 1.0602497e-38
0.35798189 0.66373885 0.6099987 1.0602497e-38
0.36514726 0.66507018 0.6099987 1.0602497e-38
0.37533456 0.6650582 0.6099987 1.0602497e-38
0.38495299 0.66503882 0.60995126 1.0602497e-38
0.39471579 0.66508269 0.60999864 1.0602497e-38
0.404746 0.66498512 0.60999864 1.0602497e-38
0.41500705 0.66500044 0.60999864 1.0602497e-38
0.42537642 0.66502196 0.60999864 1.0602497e-38
0.43505195 0.66490191 0.60999864 1.0602497e-38
0.44493571 0.66502517 0.60999864 1.0602497e-38
0.45335174 0.66491336 0.60999864 1.0602497e-38
0.35940421 0.67009646 0.6099987 1.0602497e-38
0.36584935 0.67454857 0.6099987 1.0602497e-38
0.37533468 0.67510122 0.6099987 1.0602497e-38
0.3849678 0.67508185 0.6099987 1.0602497e-38
0.39487424 0.67509651 0.60999864 1.0602497e-38
0.40476474 0.67493594 0.60999864 1.0602497e-38
0.41483775 0.67487848 0.60999864 1.0602497e-38
0.42529613 0.67503464 0.60999864 1.0602497e-38
0.43507195 0.67486668 0.60999864 1.0602497e-38
0.44493544 0.67495292 0.60999864 1.0602497e-38
0.45328692 0.67492181 0.60999864 1.0602497e-38
0.36829108 0.68371725 0.60976058 1.0602497e-38
0.37533456 0.68514413 0.6099987 1.0602497e-38
0.38502243 0.68509537 0.6099987 1.0602497e-38
0.39468205 0.68500668 0.60999864 1.0602497e-38
0.4047648 0.68500751 0.60999864 1.0602497e-38
0.41497234 0.68486273 0.60999864 1.0602497e-38
0.42521557 0.68504536 0.60999864 1.0602497e-38
0.43499032 0.68496436 0.60999864 1.0602497e-38
0.44493565 0.68488103 0.60999864 1.0602497e-38
0.45335168 0.68491501 0.60999864 1.0602497e-38
0.37627488 0.69467866 0.6099987 1.0602497e-38
0.38491303 0.69498432 0.6099987 1.0602497e-38
0.39484265 0.69491857 0.6099987 1.0602497e-38
0.40468711 0.69508082 0.6099987 1.0602497e-38
0.41497159 0.69496137 0.60999864 1.0602497e-38
0.42537636 0.69504887 0.60999864 1.0602497e-38
0.43500975 0.69492847 0.60999864 1.0602497e-38
0.44485229 0.69506532 0.60999864 1.0602497e-38
0.45328695 0.69492233 0.60999864 1.0602497e-38
0.37872872 0.70370299 0.60999876 1.0602497e-38
0.38496765 0.70499784 0.6099987 1.0602497e-38
0.39474759 0.70493239 0.6099987 1.0602497e-38
0.4048422 0.7049036 0.6099987 1.0602497e-38
0.41487265 0.70515829 0.6099987 1.0602497e-38
0.42529601 0.70505935 0.6099987 1.0602497e-38
0.43503094 0.70489967 0.60999864 1.0602497e-38
0.44502324 0.70498973 0.60999864 1.0602497e-38
0.45331782 0.70511186 0.60999864 1.0602497e-38
0.38595587 0.71448594 0.60999876 1.0602497e-38
0.39477906 0.71505439 0.6099987 1.0602497e-38
0.4047648 0.71497679 0.6099987 1.0602497e-38
0.41493818 0.71514553 0.6099987 1.0602497e-38
0.42521557 0.71506792 0.6099987 1.0602497e-38
0.43494901 0.71499443 0.6099987 1.0602497e-38
0.44485226 0.71491981 0.60999864 1.0602497e-38
0.45331815 0.71511233 0.60999864 1.0602497e-38
0.38821229 0.72276855 0.6099987 1.0602497e-38
0.39484534 0.72497201 0.60999876 1.0602497e-38
0.40476471 0.7250486 0.6099987 1.0602497e-38
0.41497219 0.72502512 0.6099987 1.0602497e-38
0.42537636 0.72507566 0.6099987 1.0602497e-38
0.43511266 0.72508866 0.6099987 1.0602497e-38
0.44501871 0.72510195 0.6099987 1.0602497e-38
0.45331791 0.72511292 0.60999864 1.0602497e-38
0.39654621 0.73439133 0.60999876 1.0510302e-38
0.40468717 0.73487341 0.6099987 1.0510302e-38
0.41481736 0.73505855 0.60989732 1.0602497e-38
0.42529592 0.73508412 0.6099987 1.0602497e-38
0.43492585 0.73505908 0.6099987 1.0602497e-38
0.44484791 0.7350288 0.6099987 1.0602497e-38
0.4533183 0.73511338 0.6099987 1.0602497e-38
0.39897457 0.74410212 0.60999876 1.0510302e-38
0.40476468 0.74494565 0.6099987 1.0510302e-38
0.41483757 0.74500281 0.6099987 1.0510302e-38
0.42521548 0.74509043 0.6099987 1.0510302e-38
0.43503118 0.74502486 0.6099987 1.0602497e-38
0.44501868 0.74495924 0.6099987 1.0602497e-38
0.45331776 0.74511397 0.6099987 1.0602497e-38
0.39935794 0.7546196 0.60999876 1.0510302e-38
0.40484208 0.75501966 0.60999876 1.0510302e-38
0.41500551 0.75498605 0.6099987 1.0510302e-38
0.42537627 0.75510246 0.6099987 1.0510302e-38
0.43513566 0.75499344 0.6099987 1.0510302e-38
0.44482863 0.75501317 0.6099987 1.0602497e-38
0.45331824 0.7551145 0.6099987 1.0602497e-38
0.39935786 0.76488656 0.60999876 1.0510302e-38
0.40470788 0.76496726 0.60999876 1.0510302e-38
0.41493839 0.76497465 0.60999876 1.0510302e-38
0.42519256 0.76498276 0.60999876 1.0510302e-38
0.43494898 0.76495939 0.6099987 1.0510302e-38
0.44493571 0.76506764 0.6099987 1.0510302e-38
0.45331779 0.76511502 0.6099987 1.0510302e-38
0.39935786 0.77148664 0.60999882 1.0510302e-38
0.40548247 0.77354819 0.60999876 1.0510302e-38
0.41487113 0.77496141 0.60999876 1.0510302e-38
0.42531562 0.77498889 0.60999876 1.0510302e-38
0.43511263 0.77506059 0.60999876 1.0510302e-38
0.44493514 0.77499568 0.6099987 1.0510302e-38
0.45331812 0.77511561 0.6099987 1.0510302e-38
0.41698232 0.78237897 0.60999876 1.0510302e-38
0.42549136 0.78477764 0.60999876 1.0510302e-38
0.43492576 0.78502297 0.60999876 1.0510302e-38
0.44493586 0.78492361 0.6099987 1.0510302e-38
0.45331794 0.78511608 0.6099987 1.0510302e-38
0.42803174 0.79114401 0.60999882 1.0510302e-38
0.43579289 0.7938419 0.60999876 1.0510302e-38
0.4450421 0.79498273 0.60999876 1.0510302e-38
0.45331809 0.79511666 0.60999876 1.0510302e-38
0.44608018 0.80241066 0.60999876 1.0510302e-38
0.45345855 0.80476409 0.60999876 1.0510302e-38
0.45585471 0.81069291 0.60999882 1.0510302e-38
0.43690786 -0.74195111 0.61649722 1.0786889e-38
0.4317272 -0.70789862 0.61201531 1.0786889e-38
0.39835072 -0.65406984 0.61769724 1.0879084e-38
0.42815548 -0.64259958 0.61389089 1.0879084e-38
0.35192621 -0.62614429 0.61173832 1.097128e-38
0.39697689 -0.62197936 0.616777 1.097128e-38
0.44547153 -0.59438717 0.61740559 1.097128e-38
0.42012948 -0.54689407 0.61599004 1.1063476e-38
0.65537554 -0.45311734 0.61000067 1.097128e-38
0.66525316 -0.45365587 0.61000067 1.1063476e-38
0.67478347 -0.45376167 0.61000079 1.1063476e-38
0.68444729 -0.45340785 0.61000085 1.1063476e-38
0.69449437 -0.45375261 0.61000097 1.1063476e-38
0.70418799 -0.45362049 0.61000109 1.1063476e-38
0.71401626 -0.45348766 0.61000121 1.1063476e-38
0.72458482 -0.4536165 0.61000115 1.1063476e-38
0.73487568 -0.45347479 0.61000121 1.1063476e-38
0.74559402 -0.45357805 0.61000144 1.1063476e-38
0.75498605 -0.45360315 0.61000139 1.1063476e-38
0.76411593 -0.45364723 0.6100015 1.1063476e-38
0.77536857 -0.45352107 0.61000156 1.1063476e-38
0.7851519 -0.45354626 0.61000156 1.1063476e-38
0.79466498 -0.45359102 0.61000156 1.1063476e-38
0.64645207 -0.44317839 0.61000061 1.097128e-38
0.65485281 -0.44509116 0.61008739 1.097128e-38
0.66525352 -0.44500759 0.61000067 1.097128e-38
0.67489243 -0.44504806 0.61000067 1.1063476e-38
0.68438923 -0.44486061 0.61000085 1.1063476e-38
0.69413561 -0.44515133 0.61000085 1.1063476e-38
0.70400953 -0.44495702 0.61000097 1.1063476e-38
0.71445203 -0.4450112 0.61000127 1.1063476e-38
0.72443712 -0.44504687 0.61000127 1.1063476e-38
0.73487568 -0.44486445 0.61000127 1.1063476e-38
0.74528408 -0.44491634 0.61000144 1.1063476e-38
0.75474203 -0.44517571 0.61000144 1.1063476e-38
0.76427096 -0.44488344 0.6100015 1.1063476e-38
0.77517122 -0.44516754 0.61000156 1.1063476e-38
0.7848978 -0.44494444 0.61000156 1.1063476e-38
0.79475915 -0.44488478 0.61000162 1.1063476e-38
0.36775482 -0.43014982 0.61530793 1.097128e-38
0.41326129 -0.43486884 0.61431688 1.1063476e-38
0.63856941 -0.43232641 0.61000055 1.097128e-38
0.64455795 -0.43452486 0.61000061 1.097128e-38
0.65469134 -0.43507558 0.61000067 1.097128e-38
0.66525275 -0.43499374 0.61000067 1.097128e-38
0.67467427 -0.43497455 0.61000067 1.097128e-38
0.68444771 -0.43494576 0.61000079 1.097128e-38
0.69436002 -0.43491489 0.61000085 1.1063476e-38
0.70424736 -0.43513846 0.61000097 1.1063476e-38
0.71415514 -0.43487597 0.61000115 1.1063476e-38
0.72468299 -0.43508485 0.61000121 1.1063476e-38
0.73481321 -0.43505025 0.61000127 1.1063476e-38
0.74540448 -0.434793 0.61000133 1.1063476e-38
0.75457424 -0.43514156 0.61000144 1.1063476e-38
0.76420641 -0.43486801 0.61000144 1.1063476e-38
0.77497417 -0.4350847 0.6100015 1.1063476e-38
0.78489763 -0.4350445 0.61000156 1.1063476e-38
0.79475915 -0.43491921 0.61000156 1.1063476e-38
0.63616019 -0.42438293 0.61000055 1.097128e-38
0.64418083 -0.42485505 0.61000061 1.097128e-38
0.65452462 -0.42495602 0.61000067 1.097128e-38
0.66525346 -0.42497995 0.61000067 1.097128e-38
0.67489249 -0.42487919 0.61000067 1.097128e-38
0.68450505 -0.42502961 0.61000079 1.097128e-38
0.69407177 -0.4249258 0.61000091 1.097128e-38
0.70430183 -0.42505839 0.61000085 1.1063476e-38
0.71427047 -0.42496949 0.61000103 1.1063476e-38
0.72438157 -0.42487857 0.61000133 1.1063476e-38
0.73506254 -0.42501405 0.61000133 1.1063476e-38
0.7454046 -0.42515588 0.61000144 1.1063476e-38
0.75491005 -0.42481908 0.61000144 1.1063476e-38
0.76420647 -0.42510581 0.6100015 1.1063476e-38
0.77523661 -0.42476881 0.61000156 1.1063476e-38
0.78489763 -0.42514464 0.61000156 1.1063476e-38
0.79475921 -0.42495364 0.61000162 1.1063476e-38
0.62878555 -0.41335806 0.61000055 1.097128e-38
0.63522035 -0.41493154 0.61000061 1.097128e-38
0.64438933 -0.41498166 0.61000061 1.097128e-38
0.6548636 -0.41502464 0.61000067 1.097128e-38
0.6652528 -0.41496608 0.61000067 1.097128e-38
0.67467421 -0.41480893 0.61000079 1.097128e-38
0.68455786 -0.41509068 0.61000073 1.097128e-38
0.69430637 -0.41517329 0.61000091 1.097128e-38
0.70407426 -0.41477311 0.61000091 1.097128e-38
0.71438593 -0.41506061 0.61000103 1.097128e-38
0.72449881 -0.41489974 0.61000127 1.1063476e-38
0.73468924 -0.41496789 0.61000133 1.1063476e-38
0.74534118 -0.41527063 0.61000133 1.1063476e-38
0.75474203 -0.41478494 0.61000144 1.1063476e-38
0.76414138 -0.41509211 0.6100015 1.1063476e-38
0.77517116 -0.41467944 0.61000156 1.1063476e-38
0.78489769 -0.41524473 0.61000156 1.1063476e-38
0.79475915 -0.4149881 0.61000156 1.1063476e-38
0.62673712 -0.40451878 0.61000055 1.097128e-38
0.63527399 -0.40490082 0.61000061 1.097128e-38
0.64418083 -0.40513599 0.61000061 1.097128e-38
0.65452474 -0.40508541 0.61000067 1.097128e-38
0.66543078 -0.40507933 0.61005735 1.097128e-38
0.67472601 -0.4049412 0.61000079 1.097128e-38
0.68433672 -0.40495136 0.61000079 1.097128e-38
0.6943599 -0.40516376 0.61000085 1.097128e-38
0.70418799 -0.40493551 0.61000091 1.097128e-38
0.71408951 -0.40493253 0.61000097 1.097128e-38
0.72443706 -0.4051576 0.61000127 1.097128e-38
0.73493767 -0.40492994 0.61000127 1.1063476e-38
0.74559426 -0.40515745 0.61000139 1.1063476e-38
0.75474203 -0.40508577 0.61000144 1.1063476e-38
0.76420635 -0.40509376 0.61000144 1.1063476e-38
0.77517116 -0.40484422 0.61000156 1.1063476e-38
0.78489769 -0.40534484 0.61000156 1.1063476e-38
0.79475915 -0.40502253 0.61000162 1.1063476e-38
0.61785495 -0.39191359 0.61000043 1.097128e-38
0.62523168 -0.39487863 0.61000055 1.097128e-38
0.63506818 -0.39512327 0.61000061 1.097128e-38
0.64423531 -0.39503881 0.61000061 1.097128e-38
0.65477413 -0.39496899 0.61000067 1.097128e-38
0.66525286 -0.39493844 0.61000067 1.097128e-38
0.67478365 -0.39509383 0.61000067 1.097128e-38
0.68438917 -0.39501396 0.61000073 1.097128e-38
0.69413573 -0.39495432 0.61000085 1.097128e-38
0.70430177 -0.39509547 0.61000085 1.097128e-38
0.71433079 -0.39503679 0.61000109 1.097128e-38
0.72449911 -0.39495468 0.61000133 1.097128e-38
0.73487568 -0.39511648 0.61000133 1.097128e-38
0.7452153 -0.39504284 0.61000133 1.1063476e-38
0.75474185 -0.39506334 0.61000144 1.1063476e-38
0.76440096 -0.39508405 0.6100015 1.1063476e-38
0.77517116 -0.3950091 0.61000156 1.1063476e-38
0.78472304 -0.39510775 0.61000156 1.1063476e-38
0.79475915 -0.39505699 0.61000156 1.1063476e-38
0.40302444 -0.3893148 0.6134789 1.097128e-38
0.60707337 -0.38266975 0.61000037 1.097128e-38
0.61527789 -0.38510099 0.61033857 1.097128e-38
0.62491268 -0.3849844 0.61000055 1.097128e-38
0.63512194 -0.38509402 0.61000055 1.097128e-38
0.64428467 -0.38496035 0.61000061 1.097128e-38
0.65460485 -0.38503373 0.61000061 1.097128e-38
0.66525358 -0.38492453 0.61000067 1.097128e-38
0.67478281 -0.38501015 0.61000073 1.097128e-38
0.68444771 -0.385097 0.61000073 1.097128e-38
0.69418895 -0.38494638 0.61000091 1.097128e-38
0.70407426 -0.38481504 0.61000085 1.097128e-38
0.71420991 -0.38512275 0.61000109 1.097128e-38
0.72455978 -0.38475043 0.61000115 1.097128e-38
0.73481321 -0.38530439 0.61000127 1.097128e-38
0.74546748 -0.38492784 0.61000133 1.097128e-38
0.75474203 -0.38504082 0.61000144 1.097128e-38
0.76401228 -0.38484079 0.6100015 1.1063476e-38
0.7751711 -0.38517395 0.6100015 1.1063476e-38
0.78489769 -0.38488621 0.61000156 1.1063476e-38
0.79475915 -0.38509148 0.61000162 1.1063476e-38
0.59689862 -0.37292168 0.61000025 1.097128e-38
0.60537869 -0.37509197 0.61000055 1.097128e-38
0.61515623 -0.37505141 0.61000049 1.097128e-38
0.6252259 -0.37490693 0.61000055 1.097128e-38
0.63517082 -0.37508333 0.61000061 1.097128e-38
0.64433503 -0.37488061 0.61000061 1.097128e-38
0.65477419 -0.37509486 0.61000067 1.097128e-38
0.66525286 -0.37491074 0.61000067 1.097128e-38
0.67478365 -0.37492654 0.61000073 1.097128e-38
0.68450499 -0.37517884 0.61000073 1.097128e-38
0.69424814 -0.3749589 0.61000085 1.097128e-38
0.70418805 -0.37497503 0.61000091 1.097128e-38
0.71438068 -0.37492943 0.61027467 1.097128e-38
0.72449869 -0.37500876 0.61000115 1.097128e-38
0.7348761 -0.3750264 0.61000133 1.097128e-38
0.74540454 -0.37504345 0.61000133 1.097128e-38
0.75457424 -0.37501359 0.61000144 1.097128e-38
0.76420647 -0.37483108 0.6100015 1.097128e-38
0.77510524 -0.37508717 0.61000156 1.1063476e-38
0.78489769 -0.37498632 0.61000156 1.1063476e-38
0.7945351 -0.37535566 0.61000156 1.1063476e-38
0.57915211 -0.36158147 0.61000019 1.097128e-38
0.58538359 -0.36416063 0.61000031 1.097128e-38
0.59450054 -0.36510462 0.61000043 1.097128e-38
0.60515445 -0.36500043 0.61000043 1.097128e-38
0.61506081 -0.36495689 0.61000055 1.097128e-38
0.62506694 -0.36501291 0.61000055 1.097128e-38
0.63522035 -0.36507159 0.61000061 1.097128e-38
0.64423025 -0.36501041 0.61000061 1.097128e-38
0.65460777 -0.36498123 0.61000061 1.097128e-38
0.66525358 -0.36489689 0.61000067 1.097128e-38
0.67484027 -0.36507708 0.61000073 1.097128e-38
0.6843946 -0.36501411 0.61000079 1.097128e-38
0.69430625 -0.36497015 0.61000091 1.097128e-38
0.70430183 -0.36513254 0.61000085 1.097128e-38
0.71433073 -0.36486021 0.61000127 1.097128e-38
0.72443712 -0.36526823 0.61000115 1.097128e-38
0.73493767 -0.36474702 0.61000127 1.097128e-38
0.74534118 -0.36516032 0.61000133 1.097128e-38
0.75474197 -0.36499703 0.61000144 1.097128e-38
0.76375246 -0.36543837 0.61000144 1.097128e-38
0.77471143 -0.36767823 0.6100015 1.097128e-38
0.78489763 -0.36904636 0.61000156 1.1063476e-38
0.56850761 -0.35106349 0.61000013 1.097128e-38
0.57639343 -0.35430077 0.61000037 1.097128e-38
0.58506882 -0.35506716 0.61000037 1.097128e-38
0.59457684 -0.35508868 0.61000043 1.097128e-38
0.60530424 -0.3549 0.61000049 1.097128e-38
0.61510807 -0.35509565 0.61000055 1.097128e-38
0.62490743 -0.35512254 0.61000055 1.097128e-38
0.63512194 -0.3548241 0.61000061 1.097128e-38
0.64433515 -0.35515934 0.61000061 1.097128e-38
0.65477753 -0.35503983 0.61000061 1.097128e-38
0.66525286 -0.35488313 0.61000067 1.097128e-38
0.67473137 -0.35498396 0.61000073 1.097128e-38
0.68450505 -0.35486922 0.61000079 1.097128e-38
0.69421631 -0.35531032 0.61000705 1.097128e-38
0.70407432 -0.35485697 0.61000085 1.097128e-38
0.71420985 -0.35494882 0.61000109 1.097128e-38
0.72449917 -0.35506365 0.61000115 1.097128e-38
0.73458534 -0.3553915 0.61000127 1.097128e-38
0.74474174 -0.35704288 0.61000121 1.097128e-38
0.75474197 -0.35917759 0.61000133 1.097128e-38
0.55765706 -0.34236714 0.61000007 1.097128e-38
0.5658322 -0.34452495 0.6099999 1.097128e-38
0.57570481 -0.34483734 0.61000043 1.097128e-38
0.58493191 -0.34530839 0.61021078 1.097128e-38
0.59457707 -0.34490168 0.61000043 1.097128e-38
0.60538101 -0.34497342 0.61000043 1.097128e-38
0.61515629 -0.34523335 0.61000043 1.097128e-38
0.62514621 -0.34521803 0.61000055 1.097128e-38
0.6351707 -0.34481236 0.61000055 1.097128e-38
0.64423537 -0.34484276 0.61000061 1.097128e-38
0.65460783 -0.34510946 0.61000061 1.097128e-38
0.66525346 -0.34486923 0.61000067 1.097128e-38
0.67484027 -0.34490898 0.61000073 1.097128e-38
0.68438917 -0.34516725 0.61000085 1.097128e-38
0.69424832 -0.34521011 0.61000085 1.097128e-38
0.70412821 -0.34477624 0.61000097 1.097128e-38
0.71356529 -0.34547392 0.61000121 1.097128e-38
0.72394615 -0.34813693 0.61000115 1.097128e-38
0.73096073 -0.34913993 0.61000121 1.097128e-38
0.41447464 -0.33766124 0.61171794 1.0879084e-38
0.54143137 -0.33590925 0.61035287 1.097128e-38
0.55537009 -0.33531699 0.60999995 1.097128e-38
0.56545615 -0.33497554 0.61000001 1.097128e-38
0.57577854 -0.33496481 0.61000031 1.097128e-38
0.5851149 -0.33514571 0.61000043 1.097128e-38
0.59465265 -0.33505604 0.61000043 1.097128e-38
0.60522652 -0.33523136 0.61000043 1.097128e-38
0.61506075 -0.335141 0.61000049 1.097128e-38
0.62498695 -0.33532879 0.61000055 1.097128e-38
0.63517129 -0.33501875 0.61000061 1.097128e-38
0.6443395 -0.33499014 0.61000061 1.097128e-38
0.65477747 -0.33516562 0.61000067 1.097128e-38
0.66530937 -0.33508664 0.61000067 1.097128e-38
0.67473131 -0.33481753 0.61000067 1.097128e-38
0.68427378 -0.33546779 0.61000073 1.097128e-38
0.69363111 -0.33715084 0.61000103 1.097128e-38
0.7034381 -0.33864364 0.61000097 1.097128e-38
0.55537009 -0.32527056 0.60999995 1.097128e-38
0.56545603 -0.32501736 0.61000001 1.097128e-38
0.57570487 -0.32509965 0.61000037 1.097128e-38
0.58506912 -0.3250728 0.61000037 1.097128e-38
0.59457684 -0.32504511 0.61000043 1.097128e-38
0.60530394 -0.32513085 0.61000043 1.097128e-38
0.61496496 -0.32505086 0.61000055 1.097128e-38
0.62506694 -0.32525223 0.61000055 1.097128e-38
0.6351707 -0.3252252 0.61000055 1.097128e-38
0.64423531 -0.32512292 0.61000061 1.097128e-38
0.65460777 -0.32523772 0.61000061 1.097128e-38
0.66448802 -0.32614785 0.61000073 1.097128e-38
0.67426872 -0.32791427 0.61000091 1.097128e-38
0.68201441 -0.32909369 0.61000085 1.097128e-38
0.55565554 -0.31546739 0.60999995 1.097128e-38
0.56545585 -0.3148903 0.61000007 1.097128e-38
0.57570535 -0.31485754 0.61022633 1.097128e-38
0.58502376 -0.31500086 0.61000037 1.097128e-38
0.59450066 -0.31503606 0.61000043 1.097128e-38
0.60530412 -0.3148596 0.61000049 1.097128e-38
0.61525148 -0.31498289 0.61000049 1.097128e-38
0.62514621 -0.31517389 0.61000055 1.097128e-38
0.63522047 -0.31521159 0.61000061 1.097128e-38
0.64405531 -0.31543326 0.61000061 1.097128e-38
0.65422684 -0.31825238 0.61000067 1.097128e-38
0.40264666 -0.30217886 0.6187225 6.2448278e-39
0.55636913 -0.30518675 0.6099999 1.097128e-38
0.56545603 -0.30476323 0.61000001 1.097128e-38
0.57563102 -0.30502796 0.61000019 1.097128e-38
0.58506918 -0.30493426 0.61000043 1.097128e-38
0.59457678 -0.30501705 0.61000043 1.097128e-38
0.60538101 -0.30493066 0.61000049 1.097128e-38
0.61515623 -0.30489129 0.61000043 1.097128e-38
0.62498701 -0.30528826 0.61000055 1.097128e-38
0.63515872 -0.30537209 0.61083138 1.0418468e-38
0.64084798 -0.30881807 0.61000055 1.097128e-38
0.40097752 -0.29724112 0.61898279 6.2448278e-39
0.55636901 -0.29513234 0.6099999 1.097128e-38
0.56538594 -0.29479942 0.61000007 1.097128e-38
0.57570499 -0.29515418 0.61000037 1.097128e-38
0.58493227 -0.29485959 0.61000043 1.097128e-38
0.59457701 -0.2948302 0.61000043 1.097128e-38
0.60522652 -0.2951934 0.61000049 1.097128e-38
0.61506081 -0.29480189 0.61000043 1.097128e-38
0.62475723 -0.29515189 0.61048466 1.0602859e-38
0.63253194 -0.29818076 0.61000049 1.097128e-38
0.79743779 -0.293587 0.61000162 1.097128e-38
0.41629788 -0.28447756 0.61858559 6.3377436e-39
0.52230573 -0.28793895 0.61534512 1.0879084e-38
0.55636907 -0.28507796 0.6099999 1.097128e-38
0.56559604 -0.28501469 0.61000007 1.097128e-38
0.57570493 -0.28494534 0.61000037 1.097128e-38
0.58520573 -0.28501475 0.61000037 1.097128e-38
0.59450346 -0.28481069 0.61000043 1.097128e-38
0.60530388 -0.28509048 0.61000055 1.097128e-38
0.61510807 -0.28493813 0.61000055 1.097128e-38
0.62234282 -0.28731143 0.61000037 1.097128e-38
0.78769761 -0.28249943 0.6100015 1.097128e-38
0.79498279 -0.28472137 0.61000162 1.097128e-38
0.37410647 -0.27873018 0.6157735 1.0879084e-38
0.41919589 -0.27933884 0.61994535 8.2868097e-39
0.42281437 -0.27754965 0.61913115 8.475161e-39
0.55636907 -0.27502349 0.6099999 1.097128e-38
0.56545603 -0.27505684 0.61000007 1.097128e-38
0.57570517 -0.27490655 0.61000037 1.097128e-38
0.58511484 -0.27515545 0.61000037 1.097128e-38
0.5945763 -0.27497479 0.61000043 1.097128e-38
0.60530418 -0.27481925 0.61000049 1.097128e-38
0.61312336 -0.27683944 0.61160046 9.9574924e-39
0.77931887 -0.27191061 0.6100015 1.097128e-38
0.78529692 -0.27451098 0.61000156 1.097128e-38
0.79475921 -0.27497157 0.61000156 1.097128e-38
0.37904787 -0.26693964 0.61395031 6.2451879e-39
0.55636907 -0.26496905 0.6099999 1.0879084e-38
0.56531549 -0.26510233 0.61000013 1.097128e-38
0.57570499 -0.26486781 0.61000019 1.097128e-38
0.58506906 -0.26508465 0.61000037 1.097128e-38
0.59465039 -0.2651372 0.61000043 1.097128e-38
0.60354429 -0.26609549 0.61103392 1.0234076e-38
0.7761777 -0.26383397 0.61046827 1.097128e-38
0.78489774 -0.2647661 0.61000156 1.097128e-38
0.79475921 -0.26500607 0.61000156 1.097128e-38
0.36330059 -0.25038913 0.61505681 1.0879084e-38
0.37418848 -0.25265956 0.61603236 1.0786889e-38
0.55636901 -0.25491467 0.6099999 1.0879084e-38
0.56545609 -0.25514144 0.60999995 1.0879084e-38
0.57563376 -0.25482568 0.61000019 1.097128e-38
0.5850237 -0.2550149 0.61000037 1.097128e-38
0.5940184 -0.25566447 0.61084151 1.0510303e-38
0.60098475 -0.25995946 0.61000031 1.097128e-38
0.76677674 -0.2536689 0.61000144 1.097128e-38
0.77517116 -0.25485846 0.6100015 1.097128e-38
0.78489763 -0.25486621 0.61000156 1.097128e-38
0.79475927 -0.2550405 0.61000156 1.097128e-38
0.42038086 -0.24173065 0.61000049 1.0879084e-38
0.55636907 -0.24486023 0.6099999 1.0879084e-38
0.56545603 -0.24501446 0.60999995 1.0879084e-38
0.57570493 -0.24479093 0.61000025 1.0879084e-38
0.5851627 -0.24518952 0.61106646 1.0418108e-38
0.59077185 -0.24812761 0.61166054 1.0233719e-38
0.75742948 -0.24230416 0.61000139 1.097128e-38
0.76442105 -0.24475135 0.6100015 1.097128e-38
0.77517116 -0.2450233 0.6100015 1.097128e-38
0.78489774 -0.2449663 0.61000156 1.097128e-38
0.79475915 -0.24507491 0.61000156 1.097128e-38
0.5555889 -0.23525207 0.60999995 1.0879084e-38
0.56552625 -0.23505856 0.60999995 1.0879084e-38
0.57590276 -0.23485459 0.61057532 1.0694693e-38
0.58273613 -0.23735942 0.611377 9.8652925e-39
0.74938679 -0.23118442 0.61000127 1.097128e-38
0.75493377 -0.23478536 0.61000144 1.097128e-38
0.7640124 -0.23498939 0.6100015 1.097128e-38
0.77497417 -0.23494373 0.6100015 1.097128e-38
0.78489769 -0.2350664 0.61000156 1.097128e-38
0.79475915 -0.2351094 0.61000156 1.097128e-38
0.43071595 -0.22958517 0.61479533 1.0879084e-38
0.5553658 -0.22525249 0.60999995 1.0879084e-38
0.56545597 -0.22509745 0.60999995 1.0879084e-38
0.57406223 -0.22617492 0.61097229 1.0234075e-38
0.746934 -0.22370765 0.61000121 1.097128e-38
0.75474203 -0.22532895 0.61000144 1.097128e-38
0.76420641 -0.22498307 0.61000144 1.097128e-38
0.7751714 -0.22486261 0.6100015 1.097128e-38
0.78472298 -0.22484934 0.61000156 1.097128e-38
0.79475915 -0.22514383 0.61000156 1.097128e-38
0.55536586 -0.21520609 0.60999995 1.0879084e-38
0.56439072 -0.21606681 0.60999995 1.0879084e-38
0.57157892 -0.21967813 0.61000007 1.0879084e-38
0.73730284 -0.21278718 0.61000115 1.097128e-38
0.74534142 -0.2148294 0.61000127 1.097128e-38
0.75490999 -0.2152928 0.61000144 1.097128e-38
0.76440096 -0.21497266 0.61000144 1.097128e-38
0.77517122 -0.21502745 0.6100015 1.097128e-38
0.78489774 -0.21460781 0.61000156 1.097128e-38
0.79475915 -0.21517828 0.61000156 1.097128e-38
0.55460232 -0.20587036 0.6112718 9.7730997e-39
0.56139582 -0.20933412 0.61000007 1.0879084e-38
0.72836661 -0.20180473 0.61000115 1.097128e-38
0.73508173 -0.20456798 0.61000127 1.097128e-38
0.74521548 -0.20471498 0.61000133 1.097128e-38
0.75474191 -0.20495957 0.61000144 1.097128e-38
0.76420647 -0.20496926 0.61000144 1.097128e-38
0.77517116 -0.20519228 0.6100015 1.097128e-38
0.78489769 -0.20470792 0.61000156 1.097128e-38
0.79469138 -0.2049655 0.61000156 1.097128e-38
0.50413465 -0.19001192 0.61483508 1.0879084e-38
0.54702735 -0.19540195 0.61812729 1.2918318e-39
0.71706402 -0.19210044 0.61000109 1.097128e-38
0.72497338 -0.19487338 0.61000121 1.097128e-38
0.73506254 -0.19492358 0.61000127 1.097128e-38
0.74540466 -0.194833 0.61000127 1.097128e-38
0.75457418 -0.19462977 0.61000144 1.097128e-38
0.76427108 -0.19496077 0.6100015 1.097128e-38
0.77536875 -0.19510439 0.6100015 1.097128e-38
0.78489769 -0.19480801 0.61000156 1.097128e-38
0.79475927 -0.19474939 0.61000156 1.097128e-38
0.53914654 -0.18072318 0.61913174 2.3978193e-39
0.54247224 -0.18712331 0.61855632 1.1992775e-39
0.70627356 -0.18272208 0.61000103 1.097128e-38
0.71420991 -0.18477239 0.61000097 1.097128e-38
0.72449839 -0.18505211 0.61000115 1.097128e-38
0.73493767 -0.18488105 0.61000127 1.097128e-38
0.74540466 -0.18519595 0.61000133 1.097128e-38
0.75474197 -0.18459244 0.61000144 1.097128e-38
0.76420653 -0.18495633 0.61000144 1.097128e-38
0.77517134 -0.18502882 0.6100015 1.097128e-38
0.78489774 -0.18490812 0.61000156 1.097128e-38
0.79475927 -0.18478383 0.61000156 1.097128e-38
0.67598438 -0.17159076 0.61000079 1.0879084e-38
0.68444735 -0.17277944 0.61000085 1.0879084e-38
0.69471073 -0.17375614 0.61000091 1.097128e-38
0.70441556 -0.17507245 0.61000085 1.097128e-38
0.71427053 -0.1750823 0.61000097 1.097128e-38
0.72431505 -0.17485102 0.61000109 1.097128e-38
0.73481321 -0.17484105 0.61000127 1.097128e-38
0.74559438 -0.17530872 0.61000127 1.097128e-38
0.75474209 -0.17489325 0.61000144 1.097128e-38
0.76414144 -0.17495328 0.6100015 1.097128e-38
0.77517122 -0.1751937 0.6100015 1.097128e-38
0.78489769 -0.17500821 0.61000156 1.097128e-38
0.79475921 -0.17481828 0.61000156 1.097128e-38
0.42659527 -0.16450572 0.6169064 1.0879084e-38
0.53786886 -0.16555019 0.61738998 1.3837066e-39
0.5430308 -0.16184661 0.61734504 1.6606606e-39
0.62684995 -0.16150515 0.61000043 1.0879084e-38
0.63486201 -0.16209222 0.61000055 1.0879084e-38
0.64504981 -0.16276141 0.61000061 1.0879084e-38
0.65491343 -0.16389814 0.61000061 1.0879084e-38
0.66525322 -0.16462146 0.61000067 1.0879084e-38
0.67478311 -0.1650041 0.61000067 1.0879084e-38
0.68466848 -0.16491994 0.61000067 1.0879084e-38
0.69407201 -0.16510084 0.61000085 1.0879084e-38
0.70400572 -0.16476358 0.61027074 1.0879084e-38
0.71450144 -0.16516781 0.61000097 1.0879084e-38
0.72449875 -0.16510782 0.61000115 1.097128e-38
0.7346893 -0.16480362 0.61000127 1.097128e-38
0.74546766 -0.16519432 0.61000127 1.097128e-38
0.75474203 -0.16519409 0.61000144 1.097128e-38
0.76401228 -0.16471103 0.61000144 1.097128e-38
0.77523679 -0.16510908 0.6100015 1.097128e-38
0.7848587 -0.16528325 0.6103245 1.097128e-38
0.79475921 -0.16485272 0.61000156 1.097128e-38
0.53983915 -0.15847899 0.61618137 1.0879084e-38
0.54768974 -0.15863727 0.61764783 1.660662e-39
0.55503821 -0.15499088 0.61286467 7.9292011e-39
0.56511688 -0.15320595 0.60999995 1.0879084e-38
0.57544708 -0.15257852 0.61000007 1.0879084e-38
0.58506912 -0.15239303 0.61000013 1.0879084e-38
0.59495246 -0.15289387 0.61000025 1.0879084e-38
0.60521394 -0.15417854 0.61000037 1.0879084e-38
0.61510837 -0.15427081 0.61000043 1.0879084e-38
0.62522012 -0.15489186 0.61000055 1.0879084e-38
0.63533288 -0.15494092 0.61000055 1.0879084e-38
0.64407665 -0.1550498 0.61000055 1.0879084e-38
0.65469044 -0.15504912 0.61000067 1.0879084e-38
0.66546828 -0.15504847 0.61000061 1.0879084e-38
0.6746124 -0.15516087 0.61000073 1.0879084e-38
0.68422616 -0.15479146 0.61000085 1.0879084e-38
0.69447219 -0.15508355 0.61000085 1.0879084e-38
0.70418799 -0.15495425 0.61000091 1.0879084e-38
0.7140398 -0.15482149 0.61000097 1.0879084e-38
0.72473288 -0.15512012 0.61000103 1.0879084e-38
0.73487568 -0.15498827 0.61000127 1.0879084e-38
0.74516368 -0.15485281 0.61000133 1.0879084e-38
0.75474203 -0.15549491 0.61000144 1.0879084e-38
0.76420647 -0.15469538 0.61000144 1.0879084e-38
0.77517134 -0.15503111 0.6100015 1.0879084e-38
0.78489769 -0.15520836 0.61000156 1.0879084e-38
0.79475915 -0.15488717 0.61000162 1.0879084e-38
0.55636597 -0.14557335 0.61000007 1.0879084e-38
0.56545603 -0.14509572 0.60999995 1.0879084e-38
0.57584721 -0.14490981 0.61000019 1.0879084e-38
0.5851149 -0.1448909 0.61000031 1.0879084e-38
0.59434861 -0.14514208 0.61000043 1.0879084e-38
0.60515457 -0.14495535 0.61000043 1.0879084e-38
0.61525142 -0.14483243 0.61000043 1.0879084e-38
0.62506711 -0.1449988 0.61000055 1.0879084e-38
0.6350233 -0.14516839 0.61000055 1.0879084e-38
0.64443463 -0.1449416 0.61000061 1.0879084e-38
0.6546917 -0.14511253 0.61000061 1.0879084e-38
0.66503811 -0.1450633 0.61000067 1.0879084e-38
0.67493987 -0.14505571 0.61000067 1.0879084e-38
0.68444735 -0.14508569 0.61000073 1.0879084e-38
0.69402355 -0.14488667 0.61000085 1.0879084e-38
0.70441562 -0.14510714 0.61000085 1.0879084e-38
0.71427059 -0.14490701 0.61000097 1.0879084e-38
0.72443724 -0.14492755 0.61000121 1.0879084e-38
0.73506254 -0.14516903 0.61000127 1.0879084e-38
0.7454046 -0.14472046 0.61000133 1.0879084e-38
0.75491005 -0.1454507 0.61000144 1.0879084e-38
0.76420641 -0.14493324 0.61000144 1.0879084e-38
0.77510524 -0.14495465 0.6100015 1.0879084e-38
0.78489769 -0.14530848 0.61000156 1.0879084e-38
0.79475915 -0.14492162 0.61000156 1.0879084e-38
0.43246472 -0.13792318 0.61345977 1.0879084e-38
0.55636591 -0.13551895 0.61000007 1.0879084e-38
0.56545597 -0.13496871 0.60999995 1.0879084e-38
0.57570493 -0.13487536 0.61000001 1.0879084e-38
0.5850237 -0.13504286 0.61000037 1.0879084e-38
0.59457672 -0.135121 0.61000043 1.0879084e-38
0.6054529 -0.13484713 0.61000043 1.0879084e-38
0.61510879 -0.13497636 0.61000049 1.0879084e-38
0.62491274 -0.13510936 0.61000055 1.0879084e-38
0.6353184 -0.13490738 0.61000055 1.0879084e-38
0.64412153 -0.13510484 0.61000061 1.0879084e-38
0.65453023 -0.13500239 0.61000061 1.0879084e-38
0.66546828 -0.13501769 0.61000067 1.0879084e-38
0.6746124 -0.13499615 0.61000067 1.0879084e-38
0.68460584 -0.1351494 0.61000073 1.0879084e-38
0.6942479 -0.13511072 0.61000085 1.0879084e-38
0.70396048 -0.13484089 0.61000085 1.0879084e-38
0.71445209 -0.13522725 0.61000097 1.0879084e-38
0.72431505 -0.13496512 0.61000097 1.0879084e-38
0.73493767 -0.13513082 0.61000127 1.0879084e-38
0.74540472 -0.13508344 0.61000133 1.0879084e-38
0.75474185 -0.1351255 0.61000144 1.0879084e-38
0.76420647 -0.13517106 0.61000144 1.0879084e-38
0.77497429 -0.13463849 0.6100015 1.0879084e-38
0.78489769 -0.13540857 0.61000156 1.0879084e-38
0.79455692 -0.13472198 0.61000162 1.0879084e-38
0.55636591 -0.12546456 0.61000007 1.0879084e-38
0.56626797 -0.12510401 0.6099999 1.0879084e-38
0.57583773 -0.12473936 0.61006808 1.0879084e-38
0.58493227 -0.12519701 0.61000025 1.0879084e-38
0.59472322 -0.12492632 0.61000043 1.0879084e-38
0.60538155 -0.12492549 0.61000043 1.0879084e-38
0.61496502 -0.12512369 0.61000043 1.0879084e-38
0.62522018 -0.12484609 0.61000055 1.0879084e-38
0.63500959 -0.12513949 0.61000055 1.0879084e-38
0.64428514 -0.12500812 0.61000061 1.0879084e-38
0.65495026 -0.12486642 0.61000061 1.0879084e-38
0.66503817 -0.12503876 0.61000067 1.0879084e-38
0.67500168 -0.12510997 0.61000067 1.0879084e-38
0.68427384 -0.12502162 0.61000073 1.0879084e-38
0.69440871 -0.12510304 0.61000079 1.0879084e-38
0.70418811 -0.12499374 0.61000091 1.0879084e-38
0.71410477 -0.12488171 0.61000085 1.0879084e-38
0.72449887 -0.12521683 0.61000109 1.0879084e-38
0.73463815 -0.12487078 0.61000133 1.0879084e-38
0.74559432 -0.12518963 0.61000127 1.0879084e-38
0.75457418 -0.12480375 0.61000144 1.0879084e-38
0.76420635 -0.12540889 0.61000144 1.0879084e-38
0.77517116 -0.12454395 0.6100015 1.0879084e-38
0.78489769 -0.12550865 0.61000156 1.0879084e-38
0.79475921 -0.12449364 0.61000162 1.0879084e-38
0.42862082 -0.11462137 0.61200994 1.0879084e-38
0.44394031 -0.11964022 0.61772209 1.0879084e-38
0.55636597 -0.11541017 0.61000007 1.0879084e-38
0.56647116 -0.11482414 0.6099999 1.0879084e-38
0.57570523 -0.11496746 0.61000025 1.0879084e-38
0.58506912 -0.11511575 0.61000013 1.0879084e-38
0.59465021 -0.11491415 0.61000043 1.0879084e-38
0.60507208 -0.11519395 0.61000043 1.0879084e-38
0.61510843 -0.11480724 0.61000049 1.0879084e-38
0.62506723 -0.11495645 0.61000055 1.0879084e-38
0.63517118 -0.11510992 0.61000055 1.0879084e-38
0.64444917 -0.11490778 0.61000061 1.0879084e-38
0.65444148 -0.11495562 0.61000061 1.0879084e-38
0.66546828 -0.11498684 0.61000067 1.0879084e-38
0.6746695 -0.11522005 0.61002719 1.0879084e-38
0.68466848 -0.1150632 0.61000067 1.0879084e-38
0.69407189 -0.11490613 0.61000091 1.0879084e-38
0.70441556 -0.11514176 0.61000085 1.0879084e-38
0.71427065 -0.11473174 0.61000097 1.0879084e-38
0.72473294 -0.11522255 0.61000121 1.0879084e-38
0.73487568 -0.11480717 0.61000127 1.0879084e-38
0.74546766 -0.11507964 0.61000127 1.0879084e-38
0.75474203 -0.11475839 0.61000144 1.0879084e-38
0.76440114 -0.11538527 0.61000144 1.0879084e-38
0.7751714 -0.1147088 0.6100015 1.0879084e-38
0.78489769 -0.11560876 0.61000156 1.0879084e-38
0.79475915 -0.1145281 0.61000156 1.0879084e-38
0.55636597 -0.10535575 0.61000007 1.0879084e-38
0.56647098 -0.10468901 0.6099999 1.0879084e-38
0.57563388 -0.10510382 0.61000007 1.0879084e-38
0.58487409 -0.10467887 0.61013943 1.0879084e-38
0.59450114 -0.10508151 0.61000043 1.0879084e-38
0.60530394 -0.10508464 0.61000043 1.0879084e-38
0.61526537 -0.10492453 0.61000043 1.0879084e-38
0.62491274 -0.10507052 0.61000055 1.0879084e-38
0.63537687 -0.10484949 0.61000055 1.0879084e-38
0.64413542 -0.105078 0.61000055 1.0879084e-38
0.6549502 -0.10498963 0.61000061 1.0879084e-38
0.66503817 -0.10501425 0.61000067 1.0879084e-38
0.67500156 -0.10493955 0.61000067 1.0879084e-38
0.68422616 -0.10495064 0.61000079 1.0879084e-38
0.69442445 -0.10511171 0.61000085 1.0879084e-38
0.70396054 -0.10488524 0.61000085 1.0879084e-38
0.71427059 -0.10530196 0.61000097 1.0879084e-38
0.72426468 -0.10481794 0.61000121 1.0879084e-38
0.73487568 -0.10524024 0.61000127 1.0879084e-38
0.74516368 -0.10474865 0.61000133 1.0879084e-38
0.75474197 -0.10505921 0.61000144 1.0879084e-38
0.76427096 -0.10514481 0.61000144 1.0879084e-38
0.77517134 -0.10487363 0.6100015 1.0879084e-38
0.78489774 -0.10570885 0.61000156 1.0879084e-38
0.79475921 -0.10456254 0.61000156 1.0879084e-38
0.55663455 -0.095511407 0.61056548 1.0879084e-38
0.56647104 -0.094553888 0.6099999 1.0879084e-38
0.57556224 -0.095241845 0.61000019 1.0879084e-38
0.58520585 -0.094746597 0.61000019 1.0879084e-38
0.59442985 -0.095246464 0.61000043 1.0879084e-38
0.60545301 -0.094802208 0.61000043 1.0879084e-38
0.61496508 -0.095309973 0.61000043 1.0879084e-38
0.62522006 -0.094800256 0.61000055 1.0879084e-38
0.6349653 -0.09509933 0.61000055 1.0879084e-38
0.64449376 -0.094955653 0.61000055 1.0879084e-38
0.65444148 -0.095086284 0.61000061 1.0879084e-38
0.66546828 -0.09495604 0.61000067 1.0879084e-38
0.67456549 -0.094900653 0.61000067 1.0879084e-38
0.68444741 -0.095236935 0.61000079 1.0879084e-38
0.69408703 -0.094919659 0.61000079 1.0879084e-38
0.70418805 -0.095033243 0.61000091 1.0879084e-38
0.71443594 -0.095147312 0.61000085 1.0879084e-38
0.72449881 -0.094823673 0.61000097 1.0879084e-38
0.7351132 -0.095169969 0.61000133 1.0879084e-38
0.74540478 -0.094607972 0.61000127 1.0879084e-38
0.75474197 -0.095360041 0.61000144 1.0879084e-38
0.76414144 -0.094906986 0.61000144 1.0879084e-38
0.77517116 -0.095038466 0.6100015 1.0879084e-38
0.78507274 -0.095450848 0.61000156 1.0879084e-38
0.79475915 -0.094596982 0.61000156 1.0879084e-38
0.47986823 -0.082695663 0.61500394 1.0879084e-38
0.5573681 -0.085332341 0.61000007 1.0879084e-38
0.56660366 -0.084613062 0.6099999 1.0879084e-38
0.57570493 -0.085193247 0.61000007 1.0879084e-38
0.58511484 -0.084900647 0.61000013 1.0879084e-38
0.59457678 -0.085049488 0.61000043 1.0879084e-38
0.60538161 -0.084882781 0.61000043 1.0879084e-38
0.61510843 -0.084990263 0.61000043 1.0879084e-38
0.62489545 -0.085104823 0.61000055 1.0879084e-38
0.63517094 -0.084838897 0.61000055 1.0879084e-38
0.64407659 -0.085142128 0.61000055 1.0879084e-38
0.65494061 -0.084932908 0.61000061 1.0879084e-38
0.66503805 -0.084989749 0.61000061 1.0879084e-38
0.67495513 -0.085003793 0.61000073 1.0879084e-38
0.68444747 -0.085082561 0.61000067 1.0879084e-38
0.69424784 -0.084909663 0.61000079 1.0879084e-38
0.70441556 -0.085176416 0.61000085 1.0879084e-38
0.71408945 -0.084811538 0.61000097 1.0879084e-38
0.72449869 -0.085325815 0.61000115 1.0879084e-38
0.73463815 -0.084696323 0.61000133 1.0879084e-38
0.74540466 -0.084970951 0.61000133 1.0879084e-38
0.75491005 -0.085308887 0.61000144 1.0879084e-38
0.76401228 -0.084671803 0.61000144 1.0879084e-38
0.77517116 -0.08520329 0.6100015 1.0879084e-38
0.78489769 -0.085247792 0.61000156 1.0879084e-38
0.79475915 -0.084631443 0.61000156 1.0879084e-38
0.5573681 -0.075269945 0.61000007 1.0879084e-38
0.56651539 -0.074910074 0.6099999 1.0879084e-38
0.57570499 -0.074984364 0.61000001 1.0879084e-38
0.5848785 -0.075290337 0.61000013 1.0879084e-38
0.5945769 -0.07468985 0.61000043 1.0879084e-38
0.60507208 -0.075160675 0.61000043 1.0879084e-38
0.61525148 -0.074667275 0.61000043 1.0879084e-38
0.62506664 -0.075195804 0.61000055 1.0879084e-38
0.63517118 -0.07504534 0.61000055 1.0879084e-38
0.64428508 -0.074810252 0.61000055 1.0879084e-38
0.65443242 -0.075037047 0.61000061 1.0879084e-38
0.66546822 -0.074925214 0.61000067 1.0879084e-38
0.67462683 -0.074958563 0.61000067 1.0879084e-38
0.68444741 -0.074928179 0.61000073 1.0879084e-38
0.69447231 -0.075120881 0.61000085 1.0879084e-38
0.7039606 -0.074929588 0.61000085 1.0879084e-38
0.71427059 -0.075126693 0.61000097 1.0879084e-38
0.72443724 -0.07555262 0.61000103 1.0879084e-38
0.73487568 -0.075582743 0.61000121 1.0879084e-38
0.74540478 -0.076297626 0.61000121 1.0879084e-38
0.75449777 -0.076650009 0.61000139 1.0879084e-38
0.76366234 -0.076952629 0.61000144 1.0879084e-38
0.77457869 -0.07841935 0.61000144 1.0879084e-38
0.78349769 -0.0798731 0.61000156 1.0879084e-38
0.5573681 -0.065207526 0.61000007 1.0879084e-38
0.56642693 -0.065209195 0.6099999 1.0879084e-38
0.57570499 -0.064775497 0.61000007 1.0879084e-38
0.58506912 -0.065411292 0.61000019 1.0879084e-38
0.59472388 -0.064507231 0.61020494 1.0879084e-38
0.605304 -0.065044306 0.61000043 1.0879084e-38
0.61495197 -0.065059587 0.61000037 1.0879084e-38
0.62522024 -0.064754471 0.61000055 1.0879084e-38
0.63517118 -0.065251768 0.61000055 1.0879084e-38
0.6442852 -0.064949945 0.61000055 1.0879084e-38
0.65485173 -0.064884 0.61000061 1.0879084e-38
0.66503817 -0.064965226 0.61000061 1.0879084e-38
0.67478353 -0.065085799 0.61000067 1.0879084e-38
0.68460578 -0.064983875 0.61000073 1.0879084e-38
0.69402367 -0.064949691 0.61000085 1.0879084e-38
0.70442623 -0.064789958 0.6107474 1.0786889e-38
0.71336383 -0.066719681 0.61000109 1.0879084e-38
0.72064012 -0.069880098 0.61000109 1.0879084e-38
0.56633812 -0.055510402 0.6099999 1.0879084e-38
0.57570499 -0.054566622 0.60999995 1.0879084e-38
0.58506912 -0.05512761 0.61000031 1.0879084e-38
0.59434044 -0.055202652 0.61000037 1.0879084e-38
0.60530394 -0.054598983 0.61000043 1.0879084e-38
0.61510855 -0.055173319 0.61000043 1.0879084e-38
0.62489551 -0.055066355 0.61000055 1.0879084e-38
0.63531858 -0.054769374 0.61000055 1.0879084e-38
0.64428514 -0.055089653 0.61000055 1.0879084e-38
0.65458262 -0.055023629 0.61006343 1.0879084e-38
0.6654225 -0.055128444 0.61000067 1.0879084e-38
0.67478353 -0.055002179 0.61000067 1.0879084e-38
0.68420899 -0.055081889 0.61032569 1.0879084e-38
0.69447476 -0.055060841 0.61047363 1.0879084e-38
0.70352143 -0.055893581 0.61094064 1.0418106e-38
0.35881734 -0.041098502 0.61575419 7.7444329e-39
0.56674862 -0.045275867 0.6099999 1.0879084e-38
0.57584745 -0.044511322 0.61000013 1.0879084e-38
0.58506924 -0.044843938 0.61000031 1.0879084e-38
0.59457684 -0.045337591 0.61000043 1.0879084e-38
0.6054706 -0.044831116 0.61000037 1.0879084e-38
0.61510855 -0.044649679 0.61000043 1.0879084e-38
0.62506664 -0.045153465 0.61000055 1.0879084e-38
0.63500965 -0.045020003 0.61000049 1.0879084e-38
0.64444929 -0.044980772 0.61000055 1.0879084e-38
0.65469104 -0.04484554 0.61000061 1.0879084e-38
0.66509885 -0.045159791 0.61000067 1.0879084e-38
0.67478359 -0.044918567 0.61000073 1.0879084e-38
0.68462139 -0.045132179 0.61000079 1.0879084e-38
0.6937381 -0.045196429 0.61164403 1.0879084e-38
0.70043844 -0.048032761 0.61000097 1.0879084e-38
0.3788155 -0.036849465 0.61167645 1.0786889e-38
0.5573681 -0.032504715 0.61000001 1.0879084e-38
0.56647104 -0.035432357 0.6099999 1.0879084e-38
0.57570559 -0.034998395 0.61000007 1.0879084e-38
0.58506918 -0.034560252 0.61000031 1.0879084e-38
0.59457684 -0.034977961 0.61000043 1.0879084e-38
0.60515457 -0.035292104 0.61000043 1.0879084e-38
0.61510849 -0.035003018 0.61000049 1.0879084e-38
0.62522024 -0.034708671 0.61000055 1.0879084e-38
0.63517123 -0.034980763 0.61000055 1.0879084e-38
0.64413542 -0.035167299 0.61000055 1.0879084e-38
0.6546911 -0.034909043 0.61000061 1.0879084e-38
0.66542238 -0.035098303 0.61000067 1.0879084e-38
0.67478353 -0.034834947 0.61000067 1.0879084e-38
0.68488282 -0.034820639 0.61163712 1.0879083e-38
0.69109398 -0.037891727 0.6121704 1.0694693e-38
0.52539963 -0.020100487 0.61558253 1.0786889e-38
0.5573681 -0.02495791 0.61000007 1.0879084e-38
0.5664711 -0.025297247 0.6099999 1.0879084e-38
0.57556236 -0.02548898 0.61000013 1.0879084e-38
0.58525974 -0.024672329 0.61000025 1.0879084e-38
0.59457678 -0.024618331 0.61000043 1.0879084e-38
0.60530388 -0.025003927 0.61000043 1.0879084e-38
0.61510849 -0.025356362 0.61000043 1.0879084e-38
0.62489545 -0.025027903 0.61000055 1.0879084e-38
0.63517112 -0.025187198 0.61000049 1.0879084e-38
0.6442852 -0.024612354 0.61000055 1.0879084e-38
0.6546911 -0.024972554 0.61000061 1.0879084e-38
0.66509879 -0.025134385 0.61000061 1.0879084e-38
0.67553532 -0.024237905 0.61161441 1.0785448e-38
0.68207633 -0.026371326 0.61231786 1.0879083e-38
0.43948618 -0.014006792 0.61408937 1.0786889e-38
0.5573681 -0.014895509 0.61000007 1.0879084e-38
0.56690711 -0.015535994 0.60999995 1.0879084e-38
0.57570499 -0.015432578 0.61000007 1.0879084e-38
0.58487844 -0.015311093 0.61000007 1.0879084e-38
0.59474081 -0.014926823 0.61000037 1.0879084e-38
0.60530388 -0.014558615 0.61000043 1.0879084e-38
0.61505324 -0.014911788 0.61003733 1.0879084e-38
0.6250667 -0.015111139 0.61000055 1.0879084e-38
0.63517118 -0.015393632 0.61000055 1.0879084e-38
0.64428526 -0.014752055 0.61000055 1.0879084e-38
0.65469122 -0.015036052 0.61000061 1.0879084e-38
0.66525334 -0.015324312 0.61000061 1.0879084e-38
0.67384458 -0.015500636 0.61237973 1.0879084e-38
0.37506706 -0.0024883575 0.61714673 1.0786889e-38
0.5573681 -0.0048331008 0.61000007 1.0879084e-38
0.56748837 -0.0050486736 0.60999995 1.0879084e-38
0.57570511 -0.0052236975 0.61000001 1.0879084e-38
0.58506924 -0.0054231673 0.61000031 1.0879084e-38
0.59442979 -0.0054732249 0.61000043 1.0879084e-38
0.60514098 -0.004893959 0.61009562 1.0879084e-38
0.61510849 -0.0051860698 0.61000037 1.0879084e-38
0.62506664 -0.004507964 0.61000055 1.0879084e-38
0.63517118 -0.0047097444 0.61000055 1.0879084e-38
0.64428514 -0.0048917527 0.61000055 1.0879084e-38
0.6546911 -0.0050995578 0.61000061 1.0879084e-38
0.66549265 -0.0053354781 0.61206943 1.0878723e-38
0.67118895 -0.0072576124 0.61000073 1.0879084e-38
0.35306323 0.0029275063 0.61518943 1.0786889e-38
0.46604028 0.0029754788 0.61639392 8.3990215e-39
0.5573681 0.0052293041 0.61000007 1.0786889e-38
0.56748831 0.0050945715 0.60999995 1.0786889e-38
0.57570511 0.0049851802 0.61000007 1.0879084e-38
0.58506924 0.004860512 0.61000013 1.0879084e-38
0.59457672 0.0047339341 0.61000043 1.0879084e-38
0.60530394 0.0045911218 0.61000043 1.0879084e-38
0.61523396 0.0044092415 0.61019337 1.0786889e-38
0.62506676 0.0052116131 0.61000055 1.0879084e-38
0.63517118 0.0050838199 0.61000055 1.0879084e-38
0.64428508 0.0049685487 0.61000055 1.0879084e-38
0.65496737 0.0050407373 0.61059946 1.0786529e-38
0.66257811 0.0037250423 0.6121605 1.0878721e-38
0.45664328 0.010515592 0.61240596 1.0786889e-38
0.49742788 0.018117243 0.61119837 5.7164976e-39
0.5573681 0.015291709 0.61000007 1.0786889e-38
0.56748837 0.015237813 0.60999995 1.0786889e-38
0.57570499 0.015194058 0.61000007 1.0786889e-38
0.58506912 0.015144189 0.61000007 1.0786889e-38
0.59457678 0.015093562 0.61000043 1.0879084e-38
0.60530388 0.015036437 0.61000043 1.0879084e-38
0.61510855 0.014984221 0.61000049 1.0879084e-38
0.62506664 0.014931191 0.61000055 1.0879084e-38
0.63517118 0.014877383 0.61000055 1.0879084e-38
0.64450669 0.015008326 0.61034578 1.0879084e-38
0.65374845 0.01412813 0.61122519 1.0879084e-38
0.56748825 0.025381057 0.60999995 1.0786889e-38
0.57570499 0.025402931 0.61000001 1.0786889e-38
0.58506918 0.025427872 0.61000019 1.0786889e-38
