# .PCD v0.7 - Point Cloud Data file format
VERSION 0.7
FIELDS x y z rgb
SIZE 4 4 4 4
TYPE F F F F
COUNT 1 1 1 1
WIDTH 1004
HEIGHT 1
VIEWPOINT 0 0 0 1 0 0 0
POINTS 1004
DATA ascii
0.42163083 -0.34860545 0.68460923 1.1135464e-38
0.41440415 -0.33479574 0.68462712 1.0860304e-38
0.40807062 -0.32296276 0.68546742 7.9032561e-39
0.41094133 -0.32822949 0.68443227 9.3801644e-39
0.40373144 -0.3147735 0.68463737 6.7058017e-39
0.39895838 -0.30301374 0.68389654 6.1529923e-39
0.40051416 -0.30624485 0.6859293 5.6019779e-39
0.63667655 -0.30067191 0.68162805 3.136553e-39
0.64089328 -0.30335733 0.68197936 2.3064098e-39
0.3983278 -0.29467613 0.68467885 6.2448278e-39
0.62672222 -0.29246652 0.68527925 2.8599591e-39
0.6321516 -0.29723582 0.68418384 3.0443559e-39
0.39873192 -0.28832749 0.68819153 6.2448278e-39
0.40519544 -0.2841202 0.68512911 7.0749373e-39
0.4106997 -0.28058118 0.68512475 6.5235782e-39
0.42195079 -0.28252563 0.68929195 6.8927153e-39
0.61984098 -0.28075701 0.68430436 2.8599577e-39
0.62275708 -0.28584641 0.68544763 2.8599577e-39
0.41569746 -0.27793106 0.68560106 7.9119077e-39
0.42471668 -0.27396175 0.68563575 8.0048222e-39
0.43328395 -0.27112195 0.68487835 6.8934398e-39
0.61691344 -0.27506164 0.68548095 6.3622748e-39
0.43814024 -0.26939565 0.68530965 7.3576591e-39
0.44398442 -0.26766798 0.6853947 6.708687e-39
0.60806686 -0.26215616 0.68623173 1.1708845e-38
0.61194754 -0.26718554 0.68458968 1.1616651e-38
0.59920973 -0.25114068 0.68441033 1.1155308e-38
0.60315573 -0.25605255 0.68479043 1.1616649e-38
0.59444606 -0.2450581 0.6850428 1.0139354e-38
0.58675545 -0.23501888 0.68500233 8.4780253e-39
0.57775003 -0.22314164 0.68470734 8.2010782e-39
0.58179343 -0.2283462 0.68555146 8.7549737e-39
0.56815553 -0.21166313 0.68400133 9.9549616e-39
0.57270634 -0.21657863 0.68530875 1.0047517e-38
0.55887872 -0.20148125 0.68523282 1.1708845e-38
0.56337768 -0.20636028 0.6849764 1.1339701e-38
0.54966331 -0.19113116 0.68256778 2.8599577e-39
0.5533222 -0.19536509 0.68532884 7.192027e-39
0.54618216 -0.1850639 0.68617439 2.8599577e-39
0.53901404 -0.17288685 0.68667722 2.8599605e-39
0.54134852 -0.17677478 0.68799984 2.8599605e-39
0.53807962 -0.16526128 0.68555593 2.8599577e-39
0.54090565 -0.16055627 0.68538344 2.8599577e-39
0.54526925 -0.15755928 0.68606073 2.8599577e-39
0.55500776 -0.15250999 0.68436176 2.8599577e-39
0.55965215 -0.14969103 0.68877614 2.8599577e-39
0.56554407 -0.14864035 0.68511963 2.8599577e-39
0.57391781 -0.1470103 0.68478125 2.9521519e-39
0.44588411 -0.071394026 0.68402886 6.179275e-39
0.45352191 -0.074475117 0.68100214 7.8409698e-39
0.43756136 -0.063698955 0.68479967 6.8224766e-39
0.44143981 -0.068378977 0.68563843 6.3618586e-39
0.70673984 -0.063258834 0.68633348 8.5597868e-39
0.71189064 -0.06797988 0.68427193 9.2156001e-39
0.43417737 -0.055227403 0.6851868 7.1927053e-39
0.69846845 -0.053297412 0.68516535 8.918487e-39
0.70238268 -0.058058258 0.68570501 7.7267864e-39
0.43747976 -0.046451479 0.68486428 6.6427909e-39
0.44145298 -0.041341752 0.68534923 7.195243e-39
0.6892705 -0.040490448 0.68448371 9.2840283e-39
0.69307911 -0.045940008 0.68511474 9.3776645e-39
0.44645759 -0.037616339 0.68485856 7.195243e-39
0.45329005 -0.032815773 0.68461829 3.9633779e-39
0.68543214 -0.035039347 0.68466967 9.2843885e-39
0.45865986 -0.028933762 0.68525696 2.6737363e-39
0.46484223 -0.024779066 0.68504757 5.0726023e-39
0.47171435 -0.02096343 0.6844691 8.0242792e-39
0.67729008 -0.023461368 0.68504983 5.9751128e-39
0.68105602 -0.028842019 0.68489254 7.0782052e-39
0.47574735 -0.019021813 0.68621677 8.2086677e-39
0.668661 -0.011053113 0.68425018 6.250255e-39
0.67232788 -0.016336074 0.68523067 5.7003308e-39
0.66445774 -0.0050097769 0.68513244 5.4255488e-39
0.65738893 0.0056817066 0.68484575 1.0029516e-38
0.66081935 0.00046489853 0.68416905 7.2647558e-39
0.64857227 0.018587833 0.684861 1.0124231e-38
0.65218991 0.01344422 0.68468982 1.0030955e-38
0.64366859 0.025392136 0.68521827 1.0311142e-38
0.63882297 0.033963513 0.68536669 1.0683528e-38
0.64130431 0.036707569 0.68488556 1.0770321e-38
0.45636171 0.048711546 0.68960184 5.8083247e-39
0.64590764 0.045466747 0.6841467 1.0580529e-38
0.44992733 0.051630281 0.68147582 5.8083247e-39
0.45250341 0.054075781 0.6852476 6.9182119e-39
0.64929736 0.050629329 0.68280065 9.8375622e-39
0.65478736 0.055170439 0.68535411 9.1144025e-39
0.45761028 0.062063504 0.68477523 8.3064685e-39
0.46303165 0.067237422 0.68441683 8.3064685e-39
0.66570145 0.063475519 0.68524897 9.0236474e-39
0.67279559 0.06868533 0.68679118 1.0965158e-38
0.46860966 0.071777694 0.68400526 8.3064685e-39
0.47558579 0.076431647 0.68463653 8.3064685e-39
0.67678946 0.071548089 0.68863362 1.1615568e-38
0.48555723 0.083043002 0.6847567 8.6741846e-39
0.49269643 0.08789631 0.6852684 9.8695371e-39
0.49750668 0.091086708 0.68512017 8.3983082e-39
0.50496262 0.095809214 0.68526155 8.3064685e-39
0.51001996 0.098973908 0.68240076 8.3983054e-39
0.51546794 0.10238427 0.68506688 8.4901479e-39
0.5241093 0.10745193 0.68513018 8.3064685e-39
0.53449881 0.11314485 0.68574512 8.3064685e-39
0.5431357 0.11724815 0.68537664 1.0151792e-38
0.6071099 0.13568965 0.68496883 6.2451879e-39
0.60548788 0.14494054 0.68534338 1.0690374e-38
0.60757977 0.15190169 0.68427628 1.1708845e-38
0.61288697 0.15536459 0.68602639 1.1708845e-38
0.45461798 0.1899205 0.68973804 1.1799087e-38
0.44514522 0.19566303 0.68512255 1.2074933e-38
0.45216215 0.19064057 0.68710071 1.2074941e-38
0.43743688 0.20557493 0.68514442 1.1706515e-38
0.44051012 0.20076422 0.68458873 1.1706515e-38
0.42898607 0.21818554 0.6843276 4.9940063e-39
0.43241709 0.21306005 0.68463391 8.0284803e-39
0.42626369 0.22424036 0.68481576 7.3820613e-39
0.42817801 0.23244403 0.68444496 7.0064923e-39
0.43258041 0.23780453 0.68538803 6.3611271e-39
0.43696934 0.24114004 0.68933439 5.9001476e-39
0.458294 -0.4120388 0.69588643 6.2448278e-39
0.46114549 -0.41631773 0.69637668 6.2448278e-39
0.45343244 -0.40474406 0.69504166 6.2448278e-39
0.44683099 -0.39493337 0.69425905 6.3370234e-39
0.45003396 -0.39948601 0.69693542 6.2448292e-39
0.43943536 -0.38278097 0.69444323 8.3660237e-39
0.44239986 -0.38771948 0.69498366 7.3533179e-39
0.43554232 -0.37596533 0.69513631 9.8371909e-39
0.42823803 -0.36309385 0.69586617 1.0852057e-38
0.43126351 -0.36831886 0.69477683 1.0481839e-38
0.42381728 -0.35489926 0.69488609 1.0763453e-38
0.41828266 -0.34399533 0.69541007 1.1045777e-38
0.42232481 -0.34763694 0.69650131 1.0674845e-38
0.41386518 -0.3352398 0.69467849 1.0674838e-38
0.40805152 -0.32402098 0.69480854 8.7333671e-39
0.41034389 -0.32878163 0.6974023 1.0118084e-38
0.40337136 -0.31516701 0.69438452 6.8901902e-39
0.39967841 -0.30385119 0.69550544 6.2448278e-39
0.40033588 -0.30776155 0.69438583 6.1529923e-39
0.39849797 -0.29499084 0.69394833 6.2448278e-39
0.62766796 -0.29213071 0.69479203 2.8599577e-39
0.63262564 -0.29732022 0.69618225 2.7677621e-39
0.39863655 -0.28834429 0.69511634 6.2448278e-39
0.40467465 -0.28427869 0.69530743 7.2596873e-39
0.41094509 -0.28052133 0.69460791 7.6342432e-39
0.62358361 -0.28504407 0.69509077 2.8599577e-39
0.415528 -0.27797017 0.69495422 7.7260759e-39
0.42430943 -0.27313182 0.69560689 8.6527111e-39
0.43300268 -0.27075043 0.69235992 1.0042847e-38
0.44887251 -0.27033204 0.6987592 9.183572e-39
0.45036584 -0.27210838 0.69898081 9.183572e-39
0.61750048 -0.2748031 0.69443452 4.1499636e-39
0.62054396 -0.27965969 0.69727659 2.8599577e-39
0.43642154 -0.26933068 0.69544464 8.0051851e-39
0.44372979 -0.26804969 0.69463605 6.5217762e-39
0.60888135 -0.26180997 0.69530898 1.1708845e-38
0.61253005 -0.26680568 0.69520289 1.1616649e-38
0.60361737 -0.25506634 0.69500798 1.1708845e-38
0.59586173 -0.24480563 0.69512206 1.1247871e-38
0.58715278 -0.23395114 0.69472474 1.1708845e-38
0.59117317 -0.23904423 0.69522434 1.1708845e-38
0.57825166 -0.22260198 0.69454718 1.1616649e-38
0.58199555 -0.22728173 0.69525158 1.1708845e-38
0.56908786 -0.21089743 0.69516575 1.1063483e-38
0.57324499 -0.21617402 0.69523156 1.1616649e-38
0.56413031 -0.20505948 0.69490993 1.023409e-38
0.5549596 -0.19486941 0.69483608 4.242518e-39
0.54744905 -0.18454032 0.69489253 2.8603192e-39
0.55068111 -0.18951295 0.69642067 2.8599577e-39
0.53984064 -0.17090125 0.69411582 2.9521561e-39
0.54284596 -0.1759007 0.69325924 2.9521575e-39
0.53906429 -0.16550037 0.69435674 2.8599591e-39
0.54109919 -0.16302441 0.69401574 2.8599591e-39
0.54612362 -0.15687995 0.69449234 2.8599577e-39
0.55347002 -0.15171339 0.69474459 2.8599577e-39
0.55906171 -0.14989418 0.69829828 2.8599577e-39
0.56510365 -0.14823298 0.69524753 2.8599577e-39
0.57391936 -0.14615107 0.6948427 2.8599577e-39
0.44780836 -0.071957968 0.69502908 7.7480511e-39
0.452272 -0.073944762 0.69651145 7.7491385e-39
0.43777752 -0.062640876 0.69475961 7.8369887e-39
0.44218478 -0.068047516 0.69519997 8.2061313e-39
0.70771313 -0.062102206 0.6940378 1.2814109e-38
0.71350992 -0.066130482 0.6960308 1.2262016e-38
0.43475658 -0.055019341 0.69474429 7.6533219e-39
0.69796568 -0.052023679 0.69544441 1.2445687e-38
0.70259327 -0.056793988 0.69537652 1.3183614e-38
0.43778217 -0.046571881 0.69521123 5.9963383e-39
0.44131655 -0.041754369 0.69529998 6.0896185e-39
0.68913168 -0.04009068 0.69341421 1.1616285e-38
0.69329262 -0.045458421 0.69542128 1.2169459e-38
0.44623584 -0.038024932 0.69507992 6.0896171e-39
0.45392147 -0.032643791 0.69525987 5.4438946e-39
0.6858024 -0.034682564 0.69547266 1.2353493e-38
0.69029379 -0.038998321 0.69968808 1.4473985e-38
0.45906663 -0.02911583 0.69571942 5.6279243e-39
0.46457502 -0.02524358 0.69509476 5.7204801e-39
0.47106898 -0.020913096 0.69667125 6.089257e-39
0.67760569 -0.023323225 0.69480312 2.8595989e-39
0.68166727 -0.028139522 0.69680917 6.2708106e-39
0.47556394 -0.019297943 0.69415218 6.6427923e-39
0.66948229 -0.01228932 0.69328022 2.8599591e-39
0.67305326 -0.015698008 0.69626766 2.8599591e-39
0.66577137 -0.0053949547 0.69557583 3.136546e-39
0.65783113 0.0066060545 0.69483173 1.0971279e-38
0.66145092 0.0017818407 0.69643068 9.0355571e-39
0.64910412 0.018890344 0.693479 1.0878721e-38
0.65292168 0.014292155 0.69576877 1.05103e-38
0.64561903 0.025297837 0.69503397 1.0233714e-38
0.63908571 0.036903441 0.69313794 1.1247865e-38
0.64150691 0.034237161 0.69648647 9.864931e-39
0.45455673 0.04925644 0.69500488 6.1771072e-39
0.64529848 0.045333274 0.6956836 1.1524089e-38
0.65069175 0.049904272 0.69880587 1.0325908e-38
0.44999808 0.052732624 0.69441617 5.9934264e-39
0.45187286 0.055170871 0.69572788 7.6579083e-39
0.64939564 0.050847404 0.69274884 1.0233712e-38
0.65538895 0.054859933 0.69555205 9.0351717e-39
0.6613732 0.058704853 0.69734353 8.9429761e-39
0.45668933 0.062743388 0.69468719 8.3061098e-39
0.46217126 0.067801751 0.69506007 8.3064685e-39
0.66595769 0.062666491 0.69468325 9.3117586e-39
0.67487442 0.067311667 0.69520837 1.2354213e-38
0.68282509 0.069732741 0.69736451 1.3276168e-38
0.4674165 0.071386546 0.69450444 8.3064685e-39
0.47460505 0.076133192 0.69502366 8.3064685e-39
0.4803198 0.079932503 0.69695359 8.3064685e-39
0.67814481 0.071516544 0.69098067 1.3736785e-38
0.68479013 0.071613893 0.69536018 1.3736786e-38
0.48492166 0.082882412 0.69446081 8.3064699e-39
0.492845 0.088101402 0.69529128 8.3983068e-39
0.49767792 0.093280546 0.69538909 8.4890745e-39
0.50462902 0.095639393 0.69488919 8.3064685e-39
0.51120561 0.099707872 0.69604582 8.3064685e-39
0.51603949 0.1026524 0.69474036 8.3064685e-39
0.52480775 0.10767791 0.69489682 8.4901381e-39
0.63553262 0.1064392 0.69793826 1.2354936e-38
0.52961087 0.11033151 0.69378346 8.4901381e-39
0.53463757 0.11288679 0.69366992 9.3202463e-39
0.54112655 0.11450781 0.69118577 1.1997835e-38
0.60758853 0.13490833 0.69494313 1.0690733e-38
0.60583007 0.14466853 0.69545746 1.1616649e-38
0.60708433 0.15171067 0.69635749 1.1708845e-38
0.61288148 0.1555784 0.69704241 1.1801041e-38
0.44870481 0.1864168 0.69491655 1.0417256e-38
0.45420811 0.18973255 0.69553578 1.1890913e-38
0.44420251 0.19607395 0.69492245 1.1706515e-38
0.45249775 0.19121312 0.69269764 1.1798709e-38
0.43682671 0.20545624 0.69527972 1.1706515e-38
0.44050616 0.20098306 0.69141799 1.2259321e-38
0.42817548 0.21757756 0.69541311 5.0861991e-39
0.43164474 0.21289074 0.69447571 9.1319272e-39
0.42547718 0.2245557 0.69511837 8.761365e-39
0.4284952 0.23333615 0.69446719 5.9001448e-39
0.43294972 0.23802817 0.69538903 5.2551467e-39
0.43851015 0.24210384 0.69334543 6.2689203e-39
0.44070458 0.24315542 0.69757563 7.0986641e-39
0.46596807 -0.42293918 0.70683241 6.2448278e-39
0.45708662 -0.41189167 0.70555735 6.2448278e-39
0.46190417 -0.41705018 0.7028597 6.2448278e-39
0.45558426 -0.4075287 0.70236379 6.2448278e-39
0.44469291 -0.39290124 0.70531571 6.8905503e-39
0.43807489 -0.38179776 0.70561731 9.8440138e-39
0.44131693 -0.38727754 0.70555639 8.7380362e-39
0.4337756 -0.37414092 0.70486325 9.7482281e-39
0.42812532 -0.36406186 0.70476717 1.0852056e-38
0.43021291 -0.36819959 0.70807511 1.0667306e-38
0.42312801 -0.35479125 0.70561385 1.1041115e-38
0.41744462 -0.34378925 0.70531124 1.1046133e-38
0.42048535 -0.34931913 0.70228839 1.113726e-38
0.41288278 -0.33483532 0.70476264 1.1046848e-38
0.40754569 -0.32463846 0.70569038 9.8494032e-39
0.41234878 -0.32710895 0.70103866 1.1045777e-38
0.40228125 -0.31428477 0.7052387 6.7079597e-39
0.39829212 -0.30485517 0.70587462 6.2448278e-39
0.63706011 -0.30085894 0.702434 2.8599577e-39
0.39681819 -0.29283527 0.70568866 6.2448278e-39
0.62846947 -0.29138064 0.70373517 2.8603164e-39
0.63341278 -0.29645696 0.70500672 2.8603164e-39
0.39908499 -0.28953788 0.70134991 6.2448278e-39
0.40500718 -0.28542581 0.70504463 6.9827417e-39
0.41093954 -0.28059968 0.70492774 6.2451893e-39
0.62440675 -0.28510621 0.70528144 2.8606765e-39
0.41588011 -0.27773461 0.70473307 7.8200736e-39
0.42493302 -0.27269733 0.70486104 7.4491289e-39
0.61760414 -0.27394354 0.70489079 3.4142021e-39
0.62063283 -0.27901596 0.70456815 2.8610353e-39
0.4334636 -0.26817429 0.70606881 6.2448278e-39
0.44234118 -0.26733106 0.70430893 7.5308876e-39
0.60948402 -0.2608614 0.70363033 1.1708845e-38
0.61274803 -0.265775 0.70538181 1.0512471e-38
0.60523045 -0.25491211 0.70513368 1.0881249e-38
0.5966568 -0.24376446 0.70500565 1.1065279e-38
0.60052925 -0.2489932 0.70406055 1.1341144e-38
0.58802664 -0.23306069 0.7046048 1.124895e-38
0.59221387 -0.23808758 0.70512688 1.1157115e-38
0.57830173 -0.22128391 0.70399171 1.143298e-38
0.58254212 -0.22623917 0.70517719 1.124895e-38
0.56973302 -0.21065679 0.70368636 3.6893498e-39
0.57389766 -0.21554126 0.70546955 9.0366375e-39
0.5655157 -0.20504105 0.70525533 3.4134846e-39
0.55650264 -0.19410264 0.70459366 2.8599577e-39
0.5608989 -0.19913892 0.70590669 2.8603164e-39
0.54815406 -0.18268596 0.7040717 2.8599577e-39
0.55190378 -0.18693176 0.70618761 2.8599577e-39
0.53938353 -0.17111379 0.70221412 2.9517946e-39
0.54389673 -0.17530097 0.70567709 2.8599577e-39
0.53951192 -0.16738954 0.70254236 2.8599577e-39
0.54081261 -0.16388838 0.7057299 2.8599577e-39
0.54459482 -0.15612754 0.70537668 2.8599577e-39
0.55518544 -0.15142891 0.70496851 2.8599577e-39
0.56532323 -0.14854923 0.70415658 2.8599577e-39
0.57479835 -0.14599134 0.7044583 2.8599577e-39
0.58053541 -0.14521833 0.70909476 2.8599577e-39
0.44949904 -0.07099919 0.70161307 6.8250116e-39
0.45432693 -0.071691275 0.70354187 5.7103445e-39
0.43863574 -0.062182844 0.70245922 5.8079645e-39
0.44460216 -0.065423138 0.70614499 5.2479202e-39
0.45474556 -0.068424135 0.70803648 5.796757e-39
0.46402508 -0.063815027 0.70874256 6.4406816e-39
0.47260666 -0.061927851 0.70451283 6.1655395e-39
0.70916313 -0.060148507 0.70072478 1.2815193e-38
0.71483111 -0.062255155 0.70310915 1.2446046e-38
0.72200567 -0.06135254 0.70392513 1.79767e-38
0.43725392 -0.054347374 0.70421773 5.0656968e-39
0.44147161 -0.05584861 0.7086243 4.7847728e-39
0.47467524 -0.05684099 0.70788985 5.9825986e-39
0.48361987 -0.052287281 0.7085188 6.4410404e-39
0.69950438 -0.051677875 0.70036185 1.4289962e-38
0.70559949 -0.054165166 0.70357811 1.4382514e-38
0.71475488 -0.054756537 0.70693761 1.7424971e-38
0.72473598 -0.053879544 0.70649993 1.576509e-38
0.73140693 -0.051353313 0.70648491 1.5581061e-38
0.43830198 -0.047030997 0.70391732 4.1426587e-39
0.44373775 -0.043664292 0.70676261 4.6014676e-39
0.45118544 -0.044602431 0.7072376 5.1539169e-39
0.48966211 -0.049184069 0.70612216 6.7169056e-39
0.49186471 -0.044479173 0.70736301 6.7169056e-39
0.69698346 -0.044630546 0.70192134 1.4474352e-38
0.70522094 -0.044772401 0.70438337 1.8346565e-38
0.71542174 -0.045210768 0.70573878 1.5673257e-38
0.72493744 -0.045114521 0.70600581 1.4382521e-38
0.73476392 -0.044250991 0.70641226 1.5673257e-38
0.7442469 -0.042877432 0.70465702 1.7332415e-38
0.75483799 -0.040992267 0.70199877 1.8623154e-38
0.44796541 -0.038599763 0.70400554 4.4199686e-39
0.45508373 -0.034911823 0.70566851 4.5107181e-39
0.46239373 -0.031575799 0.70827353 4.6925786e-39
0.49170724 -0.036655042 0.70944995 6.6250701e-39
0.68841696 -0.032746937 0.70157921 1.2815557e-38
0.69472885 -0.035408225 0.70332962 1.7056189e-38
0.70524901 -0.03530341 0.70498955 1.6779602e-38
0.71575695 -0.034627136 0.70541567 1.4935692e-38
0.72532248 -0.035007272 0.70609754 1.5027888e-38
0.73536897 -0.035231337 0.70629972 1.7793395e-38
0.74539161 -0.034639351 0.70657438 1.8991934e-38
0.75402528 -0.034459028 0.70480394 1.8069616e-38
0.46613729 -0.02655787 0.70504332 4.4188868e-39
0.47451422 -0.023202641 0.70623207 4.9698872e-39
0.48352689 -0.02407231 0.70740288 5.5219777e-39
0.67873096 -0.020865597 0.70072776 3.3209512e-39
0.68520153 -0.024291923 0.70292097 7.3775505e-39
0.69494569 -0.025286326 0.70524496 1.6779616e-38
0.70537037 -0.025397873 0.70567012 1.539667e-38
0.71563816 -0.024886537 0.70553035 1.5120083e-38
0.72562826 -0.02522938 0.70580798 1.6779602e-38
0.73535806 -0.024655143 0.70646912 1.9084491e-38
0.74472505 -0.025593799 0.70698464 1.889974e-38
0.75180179 -0.027344147 0.70642376 1.8807544e-38
0.47707134 -0.019552248 0.70045972 5.6224901e-39
0.67669958 -0.014190522 0.70259321 3.8748621e-39
0.68483937 -0.015232082 0.70528311 4.5202539e-39
0.69473833 -0.014550913 0.70632511 6.2715996e-39
0.70487124 -0.01483836 0.7061581 1.2723758e-38
0.71525425 -0.015135405 0.70590061 1.5857648e-38
0.72532278 -0.015412033 0.70609754 1.9176328e-38
0.73426193 -0.015039076 0.70708507 1.9360719e-38
0.74408847 -0.015688999 0.70408314 1.7331694e-38
0.66834772 -0.0028191754 0.70129734 3.8744978e-39
0.67443222 -0.0057567703 0.70442355 4.0588988e-39
0.6845023 -0.0054363506 0.70659316 4.8890477e-39
0.69455194 -0.0049700872 0.70651007 4.8890463e-39
0.70466846 -0.0051818518 0.70635569 5.2581833e-39
0.7148456 -0.0045096804 0.70629364 1.0972806e-38
0.72470468 -0.0046993471 0.70668387 1.8900113e-38
0.73356783 -0.0054176576 0.70642459 1.7701579e-38
0.7405588 -0.004184287 0.70283788 1.4751706e-38
0.65931332 0.0092482381 0.70075387 1.097128e-38
0.66562438 0.0052761952 0.70351583 9.2203309e-39
0.67504555 0.004686533 0.70630163 4.7050095e-39
0.68478888 0.0047297794 0.70646459 4.889405e-39
0.69462425 0.004598063 0.70643854 4.8890477e-39
0.7046597 0.0044635101 0.7063641 4.8894064e-39
0.71482223 0.0052113351 0.70631599 4.8890449e-39
0.72449219 0.0047936877 0.70647693 8.2076952e-39
0.73184818 0.0037888607 0.70525092 1.0051229e-38
0.65658087 0.016001265 0.70259821 1.3552758e-38
0.6647228 0.014797231 0.70506757 1.6410832e-38
0.6748634 0.015385996 0.70586032 9.313286e-39
0.68510658 0.015088744 0.70614481 4.8894036e-39
0.69470125 0.01503861 0.70636201 4.8890449e-39
0.70462292 0.014985632 0.7064001 4.8894064e-39
0.71488053 0.014930457 0.7062602 4.8890477e-39
0.7230373 0.013006174 0.70594835 4.9812447e-39
0.64788544 0.026808407 0.70181453 1.4198124e-38
0.65531927 0.025246337 0.70350713 1.6779605e-38
0.66451538 0.025403438 0.70514625 1.4843496e-38
0.67470956 0.02542945 0.70566857 1.5027889e-38
0.68528897 0.025456818 0.70596123 1.1617424e-38
0.69464421 0.025480269 0.70641828 6.0875726e-39
0.70448941 0.025506189 0.70653051 4.9812433e-39
0.71350312 0.02441125 0.70619601 5.81099e-39
0.64537251 0.03591267 0.7030226 1.576545e-38
0.65501046 0.035256051 0.7048251 1.5673257e-38
0.66448385 0.035613269 0.70517963 1.5027888e-38
0.67472845 0.035139207 0.70548731 1.4842416e-38
0.68537301 0.034964222 0.70587659 1.7148384e-38
0.6948511 0.03505639 0.70621389 1.7794132e-38
0.70436305 0.034844395 0.70600492 1.097244e-38
0.71230066 0.0334845 0.7038337 1.6871453e-38
0.45493558 0.047904208 0.70383322 7.0075741e-39
0.64708453 0.043027218 0.70229399 1.410557e-38
0.6549626 0.046072222 0.70367074 1.4013377e-38
0.66538519 0.045128811 0.70526671 1.4751301e-38
0.67558724 0.044372741 0.70589226 1.6134234e-38
0.6853717 0.044471417 0.70587897 1.9637303e-38
0.69551909 0.044341262 0.70521712 1.9637298e-38
0.70369983 0.043947011 0.70361769 1.9084132e-38
0.45370081 0.055545423 0.70328665 8.4894402e-39
0.65743464 0.052637648 0.70150584 1.1616649e-38
0.66538298 0.054489791 0.7037394 1.2815193e-38
0.67493504 0.055049192 0.70665973 1.705619e-38
0.68490273 0.054497663 0.70668453 2.0282311e-38
0.69425899 0.05421922 0.70481968 2.0282671e-38
0.70118201 0.055802986 0.70276749 1.871571e-38
0.45564422 0.06329897 0.70480156 8.490857e-39
0.46217895 0.068108991 0.70547003 8.3064685e-39
0.66786569 0.061056692 0.70166081 1.0325911e-38
0.67540103 0.063051976 0.70462376 1.4382518e-38
0.68537629 0.065183245 0.7045325 1.6779603e-38
0.69147378 0.062690794 0.7056483 1.751717e-38
0.46761188 0.071699545 0.70437795 8.3064685e-39
0.47547787 0.076910615 0.70547813 8.3064685e-39
0.69149172 0.073076807 0.70554638 1.9913888e-38
0.48543042 0.083420806 0.70486283 8.3064685e-39
0.49297714 0.088300146 0.70516878 8.3064685e-39
0.49807003 0.091986358 0.70455277 8.3064671e-39
0.50519615 0.09598539 0.70516461 8.6738091e-39
0.51029253 0.099164829 0.70356762 8.5819736e-39
0.51582807 0.10247955 0.70476347 8.6712966e-39
0.52481604 0.1074888 0.70515615 8.5759004e-39
0.63565427 0.10844699 0.70437813 1.521264e-38
0.64150906 0.1096628 0.70620447 1.6410822e-38
0.53495759 0.11305872 0.70423698 8.022742e-39
0.54330027 0.1173532 0.70707321 8.3975907e-39
0.63537472 0.11069928 0.70916378 1.6503739e-38
0.64296806 0.11463531 0.7083025 2.0098647e-38
0.60846728 0.13592692 0.70507914 1.1893236e-38
0.61115378 0.13147935 0.7069239 1.1708845e-38
0.60775167 0.14508578 0.70479262 1.2722996e-38
0.61072993 0.14837393 0.70895129 1.3737149e-38
0.60885543 0.15159488 0.70311731 1.3368366e-38
0.61379725 0.1532819 0.70569772 1.3737149e-38
0.44880959 0.18979658 0.70396066 1.2075329e-38
0.45369592 0.18948092 0.70597023 1.2167148e-38
0.43907729 0.19932586 0.70720154 1.1689675e-38
0.44314286 0.19443247 0.70531785 1.169684e-38
0.43550688 0.20500435 0.70497572 1.1697915e-38
0.42797565 0.21611685 0.70533127 1.0419041e-38
0.43117052 0.21116607 0.7052421 1.1706156e-38
0.42492375 0.22450891 0.70521182 1.0232144e-38
0.42752105 0.23240878 0.70502466 5.2551397e-39
0.43265545 0.23762532 0.70667243 5.1629483e-39
0.43611878 0.24011487 0.70109153 4.8867257e-39
0.46609679 -0.42304122 0.71412611 6.2448278e-39
0.45731997 -0.41183272 0.71355325 6.2448278e-39
0.46202359 -0.41785932 0.71396559 6.2448278e-39
0.44504341 -0.3944537 0.71484172 6.9845438e-39
0.43835625 -0.38335806 0.7147705 7.7242542e-39
0.44023794 -0.38701245 0.71856165 6.4299365e-39
0.43335152 -0.37477842 0.71516114 8.7348048e-39
0.42744237 -0.36402825 0.71507317 1.0853492e-38
0.43062732 -0.36933431 0.71120918 1.0391081e-38
0.42290106 -0.35538471 0.71572429 1.0949638e-38
0.4172971 -0.34453592 0.71524751 1.0766681e-38
0.42012841 -0.34993577 0.71437752 1.113726e-38
0.41230801 -0.33480787 0.71468681 9.0142616e-39
0.40725276 -0.32493299 0.71504259 8.1827156e-39
0.40247306 -0.31475088 0.71543151 6.3373821e-39
0.39830309 -0.30403501 0.71503437 6.2448278e-39
0.40035075 -0.30927548 0.71618474 6.2448278e-39
0.63803124 -0.30038142 0.71237254 2.0294515e-39
0.3961637 -0.29443657 0.7148726 6.2448278e-39
0.62882203 -0.29028273 0.71019363 2.8660659e-39
0.63383114 -0.29496768 0.71513146 2.6823893e-39
0.39869311 -0.28932849 0.71836853 6.7979945e-39
0.40504172 -0.28552014 0.71468258 7.1685763e-39
0.41124946 -0.2808792 0.71366686 9.6719035e-39
0.62583345 -0.28485626 0.71488106 2.7871644e-39
0.41605031 -0.27743736 0.71479738 8.8381842e-39
0.42487812 -0.27265948 0.71455669 8.4676024e-39
0.61842638 -0.27340835 0.71432221 2.7878833e-39
0.62153274 -0.27816892 0.71573538 2.7893196e-39
0.43419904 -0.26749286 0.71544439 7.7264374e-39
0.61345786 -0.26518026 0.71510851 3.1580979e-39
0.60653305 -0.255025 0.71498048 3.2499348e-39
0.61003369 -0.25985658 0.71639609 2.7903986e-39
0.59736711 -0.2428159 0.71500063 3.5258001e-39
0.60151815 -0.24807279 0.71470523 3.7098298e-39
0.58862329 -0.23194358 0.7147209 3.985695e-39
0.59256929 -0.23680907 0.71512061 3.4339646e-39
0.57890338 -0.22036529 0.71224576 5.4568566e-39
0.5832864 -0.22525707 0.71531349 3.7098298e-39
0.57484519 -0.21491727 0.7149232 3.3399725e-39
0.56673014 -0.20485666 0.71514386 2.7864456e-39
0.57132733 -0.20976287 0.71881545 2.7903986e-39
0.55716473 -0.19333009 0.71486247 2.7846491e-39
0.56140316 -0.19840568 0.71505016 2.785368e-39
0.54926413 -0.18164112 0.71583986 2.7842904e-39
0.55233359 -0.18665837 0.715177 2.7846491e-39
0.54625857 -0.17464297 0.71281987 2.8678624e-39
0.54225945 -0.16433498 0.71450198 2.8631933e-39
0.54638553 -0.15620916 0.71402973 2.9521589e-39
0.55181891 -0.15191394 0.71639532 2.9521589e-39
0.55563617 -0.14844872 0.71593761 2.8599591e-39
0.56523556 -0.14721297 0.71525854 2.8599577e-39
0.57517785 -0.14614557 0.71479219 2.8599577e-39
0.5816319 -0.14553402 0.71508038 2.8599577e-39
0.44800404 -0.061638974 0.71142602 5.0606381e-39
0.45435077 -0.063275516 0.71187425 6.2566519e-39
0.46270376 -0.061123334 0.71096343 6.5328759e-39
0.71749502 -0.063600317 0.7123878 6.7039912e-39
0.44605613 -0.054314677 0.71218371 5.520533e-39
0.45472661 -0.054828789 0.71394831 6.2566519e-39
0.46464446 -0.054657668 0.71323943 6.5328759e-39
0.47395951 -0.053307947 0.7118808 6.4406816e-39
0.48091209 -0.051216118 0.71115303 6.5328759e-39
0.44734201 -0.046684112 0.71154451 5.2446678e-39
0.45500213 -0.045108873 0.71314871 5.796757e-39
0.46477735 -0.04489252 0.71444482 6.3492077e-39
0.4746117 -0.044859808 0.71406221 6.4406816e-39
0.4839578 -0.044181041 0.71283549 6.7165469e-39
0.45698661 -0.038780324 0.71111161 5.2446678e-39
0.4654977 -0.035623141 0.71214467 5.7045627e-39
0.47476649 -0.034722026 0.71363437 6.0726222e-39
0.48423383 -0.035482112 0.71320212 6.5325171e-39
0.46934748 -0.028947696 0.71057391 5.4286975e-39
0.47579393 -0.02783755 0.71162903 5.4286975e-39
0.48315835 -0.027946208 0.71103883 6.3484874e-39
0.67916316 -0.005320237 0.71377587 9.9586386e-39
0.45474815 0.048523821 0.71400619 6.8231843e-39
0.46040249 0.048310723 0.71140838 7.467846e-39
0.45240912 0.05521515 0.71535563 7.1962211e-39
0.45585436 0.062909685 0.71473444 8.3064685e-39
0.46346828 0.068223149 0.71470815 8.3064685e-39
0.46813121 0.071274325 0.71483499 8.3064685e-39
0.47436678 0.075792849 0.71499491 8.3983026e-39
0.48462579 0.083133452 0.71524799 8.7649271e-39
0.49261537 0.088247918 0.71504498 8.3936391e-39
0.49754539 0.091234416 0.71446562 8.7617097e-39
0.50541139 0.096005745 0.71480376 9.0358191e-39
0.51174223 0.09984985 0.71761465 1.1155661e-38
0.51525795 0.10197148 0.71428561 9.6801502e-39
0.52378803 0.10686582 0.71510607 1.0418102e-38
0.52951491 0.11014684 0.71739852 8.8507805e-39
0.53452098 0.11347155 0.71485043 8.3929875e-39
0.54297537 0.11740032 0.71602684 6.3671611e-39
0.63519192 0.1135731 0.71196318 1.89923e-38
0.64014995 0.11588023 0.71131605 1.9453637e-38
0.61307859 0.12986243 0.71420777 1.1893236e-38
0.61251301 0.13543111 0.71483529 1.1985432e-38
0.61474264 0.14486212 0.71357089 1.5120082e-38
0.62265116 0.14618729 0.71670574 1.4382518e-38
0.61885655 0.15101768 0.71142948 1.5673257e-38
0.62230283 0.15045872 0.71247834 1.5857648e-38
0.45460489 0.18976769 0.71515852 1.2627739e-38
0.43938047 0.19892797 0.71315873 1.1685735e-38
0.44436464 0.19390087 0.71570146 1.3442082e-38
0.4521791 0.19089466 0.71760303 1.5299939e-38
0.46537167 0.19849847 0.71859264 1.7414673e-38
0.43549004 0.20496763 0.71556872 1.1783303e-38
0.44036937 0.20002033 0.71959949 1.214599e-38
0.42771193 0.21640003 0.71553212 1.1706515e-38
0.43097904 0.21167199 0.71615791 1.1798709e-38
0.42555705 0.22470829 0.71521103 1.0416174e-38
0.42828658 0.23222397 0.71348757 6.4533171e-39
0.43286064 0.236452 0.71608937 7.8358522e-39
0.4389596 0.24162658 0.7143178 7.9276793e-39
0.44350705 0.24410476 0.71722209 1.0415814e-38
0.44923222 -0.40227759 0.72451091 6.2448278e-39
0.45040923 -0.40458661 0.72884381 6.2448278e-39
0.44504765 -0.3955999 0.72527474 6.3373821e-39
0.43744454 -0.38326183 0.72553682 6.2448278e-39
0.44106999 -0.389002 0.72345543 6.3377422e-39
0.43259725 -0.3747344 0.7255435 8.9191989e-39
0.42748201 -0.36485419 0.72415757 1.0489375e-38
0.41996068 -0.35045344 0.724666 1.1137617e-38
0.42252323 -0.35547283 0.72527796 9.1078935e-39
0.41726112 -0.34519807 0.72532189 1.049153e-38
0.40969458 -0.33041185 0.72531521 8.0883662e-39
0.41237277 -0.33560595 0.72463232 9.1025097e-39
0.4069486 -0.32495144 0.7246595 6.7058031e-39
0.40285665 -0.31492737 0.72470063 6.2448278e-39
0.39900675 -0.30341747 0.72437525 6.2448278e-39
0.40061072 -0.30814019 0.72397131 6.2448278e-39
0.3961069 -0.29415292 0.72440016 6.2448278e-39
0.63512957 -0.29458943 0.72505951 2.5894734e-39
0.64124715 -0.29876727 0.72931772 1.5684636e-39
0.39785829 -0.28870597 0.72568429 7.35152e-39
0.40504113 -0.28432304 0.7246269 6.9845494e-39
0.41184872 -0.28073663 0.72442257 8.4679611e-39
0.6266517 -0.28367591 0.7254011 2.7903986e-39
0.63072288 -0.28904745 0.72616076 2.7900399e-39
0.41607532 -0.27777708 0.72449803 8.7456284e-39
0.425073 -0.27264351 0.72487104 6.6154109e-39
0.61910379 -0.2722066 0.72437066 2.7903986e-39
0.62224144 -0.27705279 0.72494334 2.7903986e-39
0.42999929 -0.26980537 0.72346705 6.2448278e-39
0.43427935 -0.26748765 0.72555333 6.2448278e-39
0.61481702 -0.26534247 0.7249071 2.7903986e-39
0.60720217 -0.25439602 0.72457981 2.7903986e-39
0.61097598 -0.2593188 0.72729892 2.7903986e-39
0.59833807 -0.24253127 0.72516948 2.7903986e-39
0.60218322 -0.24742234 0.72490692 2.7900399e-39
0.58925122 -0.23123579 0.72426766 2.7903986e-39
0.59327644 -0.236122 0.72524703 2.7903986e-39
0.58432597 -0.22483265 0.72510272 2.7903986e-39
0.57573485 -0.21423501 0.72476053 2.7900385e-39
0.58039075 -0.21936302 0.7273128 2.7903986e-39
0.5669961 -0.20316513 0.72425789 2.7903986e-39
0.57123655 -0.20796154 0.726394 2.7903986e-39
0.55810446 -0.19250661 0.72466046 2.7903986e-39
0.56229812 -0.19730376 0.72518802 2.7903986e-39
0.54887259 -0.18174799 0.72384059 2.7903986e-39
0.55296606 -0.18635839 0.72561818 2.7903986e-39
0.54505259 -0.17458844 0.72531384 2.7911203e-39
0.54366857 -0.16569902 0.72447491 2.8790055e-39
0.54596555 -0.15529878 0.72609395 2.8613954e-39
0.55337936 -0.15072079 0.72002673 2.8599577e-39
0.55437917 -0.14845778 0.7253387 2.8599577e-39
0.56634659 -0.14652215 0.72460532 2.8599577e-39
0.57732671 -0.14566059 0.72610933 2.8599577e-39
0.45461449 0.048567288 0.72440058 5.9005203e-39
0.45273384 0.054965142 0.72512615 7.1958638e-39
0.45636544 0.062490884 0.724962 8.3064685e-39
0.46275946 0.067770928 0.72516793 8.6734489e-39
0.46836343 0.071383417 0.72577792 8.3003658e-39
0.47491869 0.075865999 0.7251125 8.5762563e-39
0.48041305 0.079857312 0.72774899 1.0602122e-38
0.48540607 0.083461024 0.72478187 9.311711e-39
0.49370188 0.088685364 0.72501791 1.097127e-38
0.49827322 0.091549642 0.72642612 1.1432257e-38
0.50447994 0.095479183 0.72449684 1.1155668e-38
0.51074731 0.099301234 0.72497213 1.0694693e-38
0.51664078 0.10266219 0.72516495 8.7589464e-39
0.52548081 0.10768161 0.72479838 7.7444329e-39
0.53507131 0.11305643 0.72477967 7.9320135e-39
0.54405892 0.11620981 0.72670901 9.5982667e-39
0.61632323 0.13503562 0.72565866 1.1878472e-38
0.61806393 0.141 0.72193265 1.1893236e-38
0.62463415 0.14262912 0.72450286 1.3453001e-38
0.44585922 0.19707438 0.72329283 1.5103011e-38
0.45472392 0.19551344 0.72341698 1.9356842e-38
0.46320122 0.1978991 0.72265142 1.9724543e-38
0.43761921 0.20696689 0.72267741 1.3991664e-38
0.44472674 0.20478497 0.72600281 1.7780583e-38
0.45502779 0.20492154 0.72705787 1.9910007e-38
0.464573 0.20515835 0.72553778 2.0647202e-38
0.47242114 0.20626117 0.72134942 2.0831238e-38
0.42868081 0.21845828 0.72130924 1.2904681e-38
0.43450585 0.21528566 0.72457862 1.5946373e-38
0.44468272 0.21488075 0.7276091 1.9172453e-38
0.45484301 0.21482895 0.72827095 1.9817813e-38
0.46453696 0.21493386 0.72730678 2.0555008e-38
0.47209111 0.21330762 0.7238161 2.0463182e-38
0.42794186 0.22445992 0.72252136 1.3826623e-38
0.4347882 0.22518311 0.7261126 1.7789899e-38
0.44465163 0.22486697 0.72794366 1.9265006e-38
0.45492312 0.22479518 0.72806013 2.0002202e-38
0.46299398 0.22418387 0.72645324 2.0278784e-38
0.42948204 0.23098367 0.72180736 1.2074934e-38
0.435725 0.23408557 0.72391742 1.4932242e-38
0.44469607 0.23504658 0.72692698 1.7605512e-38
0.45391172 0.23424661 0.72732133 1.9725619e-38
0.46092629 0.23274426 0.72460967 2.0370978e-38
0.44588175 0.24201037 0.723755 1.4563822e-38
0.45152327 0.24059609 0.7259593 1.8435258e-38
0.45323861 -0.41010565 0.7390939 6.2448278e-39
0.4487794 -0.40252692 0.73609543 6.2448278e-39
0.45182857 -0.40735418 0.73398018 6.2448278e-39
0.44408748 -0.39477956 0.73549384 6.2448278e-39
0.43727726 -0.38361004 0.73522937 6.2448278e-39
0.44038126 -0.38860974 0.733055 6.2448278e-39
0.4297218 -0.37061635 0.73733699 6.7994337e-39
0.43255511 -0.37544793 0.73488277 7.7210242e-39
0.42687625 -0.36498845 0.73478729 8.6469168e-39
0.41957274 -0.35050622 0.73389757 8.0944675e-39
0.42194903 -0.3553718 0.73498297 6.707238e-39
0.41686824 -0.34516287 0.73543739 8.9245756e-39
0.40976712 -0.33109191 0.73548031 6.8898328e-39
0.41245684 -0.3363274 0.73488671 6.9838207e-39
0.40649721 -0.32460949 0.73489743 6.3370234e-39
0.39965844 -0.31033611 0.73587227 6.2448278e-39
0.4021517 -0.31557056 0.73482853 6.2448278e-39
0.39774022 -0.3045674 0.734667 6.2448278e-39
0.39596227 -0.29266247 0.73562598 6.8901888e-39
0.63632286 -0.29267061 0.7345342 2.9568308e-39
0.64211434 -0.29760647 0.73391074 2.0298159e-39
0.39887711 -0.28889155 0.73337495 8.3660181e-39
0.40444762 -0.28506196 0.73517394 6.4295777e-39
0.41138324 -0.28074083 0.73488343 7.2640202e-39
0.62792522 -0.28344038 0.73465055 2.7832128e-39
0.63212168 -0.28791407 0.73607296 2.8718183e-39
0.41648492 -0.27781621 0.73488855 1.0042124e-38
0.42484614 -0.27326056 0.73510218 9.9488478e-39
0.4314802 -0.27084494 0.73789072 8.745627e-39
0.61939365 -0.27091241 0.73468733 2.7835715e-39
0.62287545 -0.27609652 0.7352736 2.7806974e-39
0.43585581 -0.26819775 0.73476964 6.3373835e-39
0.44156983 -0.26670507 0.73727965 6.2448278e-39
0.61531866 -0.26477391 0.73483664 2.781775e-39
0.60727191 -0.25349531 0.73487538 2.7821338e-39
0.61092883 -0.25829953 0.73559016 2.7799786e-39
0.59847713 -0.24207516 0.7351594 2.7821352e-39
0.60230768 -0.24720141 0.73515362 2.7814163e-39
0.58963978 -0.23030515 0.73328739 2.785368e-39
0.593512 -0.23534779 0.73481828 2.7824939e-39
0.58586639 -0.2250603 0.73525727 2.781775e-39
0.5768013 -0.21370225 0.7348327 2.7835715e-39
0.58090597 -0.21877784 0.73497003 2.7835715e-39
0.56788057 -0.20261966 0.73514247 2.7835715e-39
0.57195097 -0.20755616 0.73564661 2.781775e-39
0.55870092 -0.19150174 0.73465681 2.7860868e-39
0.56288522 -0.19648536 0.73536724 2.7835715e-39
0.54860204 -0.18035656 0.73063433 2.7903986e-39
0.55342573 -0.18513352 0.73526174 2.7850092e-39
0.54767078 -0.17506093 0.73540366 2.8804447e-39
0.55066043 -0.17881565 0.73911577 3.1423025e-39
0.54495496 -0.16519758 0.7365545 3.0655604e-39
0.54657662 -0.1559708 0.73400807 2.8617555e-39
0.55090898 -0.15100996 0.73390597 2.8599577e-39
0.55468976 -0.14749554 0.7354669 2.8599605e-39
0.56309205 -0.14540647 0.73566896 2.8599577e-39
0.57428408 -0.14517722 0.7353133 3.1369075e-39
0.58092821 -0.14452998 0.73845541 2.8599577e-39
0.45473698 0.048428245 0.73370928 6.730281e-39
0.4628624 0.047353618 0.73288167 4.8863684e-39
0.45339933 0.054576173 0.73566669 7.1962225e-39
0.45775381 0.062728904 0.7355116 8.3064685e-39
0.46303341 0.067862801 0.73469061 8.305035e-39
0.46804118 0.071134858 0.73442668 8.2057474e-39
0.47506404 0.075869858 0.73531771 1.0879083e-38
0.48036775 0.079550795 0.73380274 1.1340061e-38
0.48537973 0.083188094 0.73458439 1.0325911e-38
0.49248958 0.088039458 0.73504013 8.4819979e-39
0.49752054 0.09121114 0.73539299 7.5600431e-39
0.50530243 0.095996246 0.73488963 7.6518771e-39
0.51180917 0.099916495 0.73902977 7.5600431e-39
0.51550603 0.10196502 0.73426044 8.113577e-39
0.52411216 0.10682174 0.73506081 8.8507805e-39
0.53252119 0.11195859 0.73466009 8.8511308e-39
0.6248529 0.12761927 0.7344538 1.4453469e-38
0.63295126 0.12852123 0.73208302 1.8873457e-38
0.61923915 0.1322137 0.73133326 1.2595152e-38
0.62370515 0.13456784 0.73510522 1.3328757e-38
0.63002545 0.13428977 0.73748761 1.5987666e-38
0.45485833 -0.41327724 0.74502492 6.2448278e-39
0.44800958 -0.40222517 0.74673605 6.2448278e-39
0.45127669 -0.40747488 0.745502 6.2448278e-39
0.44356817 -0.39471468 0.74541306 6.2448278e-39
0.43722799 -0.38386333 0.74489713 6.2448278e-39
0.44033858 -0.38906795 0.74271595 6.2448278e-39
0.42962909 -0.37037665 0.74347758 6.3370234e-39
0.43266302 -0.37559643 0.7451849 6.4292176e-39
0.42663348 -0.36478668 0.74503773 6.7994337e-39
0.43208641 -0.36036068 0.74254405 7.2611265e-39
0.41949701 -0.35056171 0.74327976 6.2448278e-39
0.42205748 -0.35572362 0.74504882 6.2448278e-39
0.41666907 -0.34474027 0.74494982 6.4295763e-39
0.40934423 -0.33074662 0.74665087 6.2448278e-39
0.41189897 -0.33552006 0.74495119 6.2451865e-39
0.406544 -0.32525826 0.74493426 6.2448278e-39
0.39922908 -0.31150925 0.74510002 6.2448278e-39
0.40247151 -0.31678972 0.74514467 6.2451879e-39
0.3958073 -0.30507663 0.7456516 6.2448278e-39
0.39609796 -0.29469186 0.74460858 7.1671316e-39
0.40076932 -0.29057294 0.74617934 6.2448278e-39
0.63789034 -0.2919324 0.74473369 2.8595975e-39
0.64142388 -0.29561886 0.74493796 1.937616e-39
0.40534925 -0.28574175 0.74495512 6.5232153e-39
0.41111726 -0.28075054 0.7457217 8.2828538e-39
0.62868077 -0.28204292 0.7448526 3.0447161e-39
0.63330549 -0.28648847 0.74534911 2.8599577e-39
0.4160738 -0.27800101 0.74516821 8.0973794e-39
0.42479405 -0.27406567 0.74524426 6.4302994e-39
0.43270701 -0.27104339 0.74511832 6.2448278e-39
0.62373066 -0.27488953 0.74502349 2.8599577e-39
0.67344838 -0.27476251 0.74882722 4.6124454e-39
0.43803057 -0.26908958 0.74498421 6.2448278e-39
0.44243506 -0.26747683 0.74449927 6.2448278e-39
0.61648458 -0.26492265 0.7446444 2.8599577e-39
0.62053853 -0.26938242 0.74969113 2.8599577e-39
0.6687696 -0.26468575 0.7494967 4.981595e-39
0.67042291 -0.26375419 0.74790221 4.9815782e-39
0.60742819 -0.2531653 0.74573797 2.8599577e-39
0.61127281 -0.25801465 0.7445128 2.8599577e-39
0.66717362 -0.25583446 0.74797744 4.889014e-39
0.59877586 -0.24223167 0.74477124 2.8599577e-39
0.6025722 -0.24714123 0.74539357 2.8599577e-39
0.6581924 -0.24252535 0.7477349 4.4280359e-39
0.66288275 -0.24836998 0.74754667 4.7968142e-39
0.59359819 -0.23501395 0.74518055 2.8599577e-39
0.64819795 -0.23240305 0.7490139 4.6127901e-39
0.65307415 -0.23473181 0.746463 4.7049731e-39
0.58628225 -0.22484598 0.74542129 2.8599577e-39
0.59020352 -0.22963169 0.74890625 2.8599577e-39
0.64578742 -0.22541857 0.74683183 5.1659569e-39
0.65004903 -0.22869451 0.74486488 5.2581553e-39
0.57769418 -0.21324384 0.74504149 2.8599591e-39
0.58156496 -0.21806008 0.74609733 2.8599577e-39
0.63576502 -0.21528007 0.74929976 5.442569e-39
0.64108801 -0.21837038 0.74696368 6.4563187e-39
0.56879634 -0.20199947 0.74416858 2.8599577e-39
0.57295537 -0.20677656 0.74606889 2.8599591e-39
0.6273151 -0.20119521 0.74724913 6.9169381e-39
0.63134688 -0.20667927 0.74768996 6.54852e-39
0.55944848 -0.19076462 0.74343854 2.8599577e-39
0.56378305 -0.19527332 0.74568653 2.8599591e-39
0.61811775 -0.19110167 0.74992752 5.442199e-39
0.62332749 -0.19590063 0.74602467 6.6407142e-39
0.55553162 -0.1847247 0.74499434 2.9521561e-39
0.56004125 -0.18828386 0.74966073 2.8599577e-39
0.61403912 -0.18417931 0.74917191 5.6269518e-39
0.54889309 -0.17322434 0.74691594 2.9521575e-39
0.55141705 -0.17653967 0.74490112 2.9525162e-39
0.6067273 -0.17356423 0.74867475 5.6269462e-39
0.61028868 -0.17882705 0.74900991 5.7187845e-39
0.54802048 -0.16449021 0.74314344 2.8624758e-39
0.55008835 -0.16957453 0.74290025 2.8599577e-39
0.59940696 -0.16307431 0.74805212 5.9027946e-39
0.60186327 -0.16606618 0.74807817 6.0875544e-39
0.54715145 -0.15490684 0.74530822 2.952875e-39
0.55052596 -0.15051235 0.74005401 2.8599577e-39
0.5762561 -0.15175809 0.74516553 1.1884216e-38
0.59743071 -0.15983292 0.74675095 5.902775e-39
0.54991317 -0.14998512 0.74310887 2.8599577e-39
0.55509079 -0.14828914 0.74380922 3.0443587e-39
0.56471509 -0.14626542 0.74358058 3.1365544e-39
0.57521081 -0.14503402 0.74525219 3.1365544e-39
0.58123207 -0.14845422 0.74966264 3.3209554e-39
0.45567504 0.048768573 0.74620759 6.730281e-39
0.45537966 0.054597802 0.74380243 7.2880608e-39
0.45842123 0.063252866 0.74461257 8.3064685e-39
0.46404564 0.06827452 0.74526888 7.8437149e-39
0.4683744 0.071175851 0.74344075 6.8231857e-39
0.47498652 0.075812593 0.74536222 7.8366299e-39
0.48450902 0.082860678 0.74520594 7.5604032e-39
0.49264768 0.088050835 0.74540931 8.4816378e-39
0.49783063 0.091171883 0.7443741 8.4823581e-39
0.50510478 0.09552858 0.74497485 8.9429761e-39
0.51154143 0.099487826 0.74520272 9.3124789e-39
0.51666999 0.10265308 0.74490947 1.1063476e-38
0.52564186 0.10785818 0.74482882 1.1432258e-38
0.53437346 0.11276545 0.74564338 8.4848216e-39
0.54319811 0.11752637 0.74824297 8.8574773e-39
0.46140361 -0.42263913 0.75438857 7.1675043e-39
0.45602101 -0.41535968 0.75542456 7.2582496e-39
0.44823495 -0.40304184 0.75536209 6.2448278e-39
0.45123288 -0.40786117 0.75491709 6.2448278e-39
0.44343212 -0.39523831 0.75498223 6.521772e-39
0.43710193 -0.38452509 0.75459909 7.35152e-39
0.43206233 -0.37463811 0.75524789 6.5217706e-39
0.42693678 -0.36475211 0.75480622 6.4295777e-39
0.41959774 -0.35047176 0.75497502 6.7058003e-39
0.42220974 -0.35553628 0.75436068 7.1671316e-39
0.41696408 -0.34533602 0.75483793 6.6143249e-39
0.40922469 -0.33089849 0.75514811 6.4295777e-39
0.41214687 -0.33632904 0.75497097 6.4295777e-39
0.40613887 -0.32501239 0.75495404 6.3373835e-39
0.39917153 -0.31175604 0.75594151 6.430298e-39
0.40190113 -0.31693718 0.75496155 6.4299393e-39
0.3895447 -0.30164462 0.75770992 7.0749359e-39
0.39631298 -0.30469373 0.75549018 7.0745772e-39
0.39496976 -0.29525331 0.7552107 7.0745772e-39
0.40103251 -0.2906509 0.7505461 6.4295791e-39
0.63927919 -0.29109144 0.75222307 3.0443531e-39
0.64513397 -0.29341719 0.75389415 2.7677663e-39
0.65510637 -0.29418671 0.75694197 3.0443363e-39
0.66149223 -0.2932677 0.75915819 2.030183e-39
0.39849997 -0.28936499 0.75782615 6.4292176e-39
0.40540734 -0.28585085 0.75430703 7.9122692e-39
0.41139099 -0.281185 0.75408036 8.0044621e-39
0.63520592 -0.28395611 0.75488257 3.5053481e-39
0.64446741 -0.2851114 0.75786859 4.7046494e-39
0.65488112 -0.28506196 0.75846624 3.689738e-39
0.66382504 -0.28330344 0.75706583 4.2436488e-39
0.41631037 -0.27796656 0.75484902 7.7253528e-39
0.42489997 -0.27436784 0.75493252 8.4679625e-39
0.43282041 -0.2711975 0.75491273 6.4302994e-39
0.62660909 -0.27385214 0.75497639 3.136553e-39
0.63443577 -0.27654016 0.75923592 4.5202511e-39
0.64605057 -0.27573025 0.75927401 4.9812461e-39
0.65569538 -0.27481651 0.7575959 5.0738047e-39
0.66410935 -0.27491063 0.7555995 5.0738033e-39
0.67081326 -0.27632663 0.75135201 4.9816034e-39
0.43776792 -0.26921594 0.75523883 6.2448278e-39
0.44176462 -0.26770312 0.7541796 6.2448278e-39
0.61777139 -0.26345685 0.75333065 3.3209512e-39
0.62282187 -0.2657527 0.75709796 3.5975437e-39
0.64775336 -0.26453736 0.75920951 4.9816076e-39
0.65519851 -0.26510307 0.75741321 5.0738047e-39
0.66307539 -0.26489255 0.75385207 5.0738033e-39
0.60851425 -0.25265354 0.75219387 3.22875e-39
0.61470598 -0.25579539 0.75576425 3.6897436e-39
0.6239602 -0.25567889 0.75935209 4.1510973e-39
0.63547605 -0.25259414 0.7594471 4.8894092e-39
0.64480835 -0.2546967 0.75821197 4.9816048e-39
0.65486217 -0.25495648 0.75557196 4.9816062e-39
0.66348404 -0.25653332 0.75117171 4.8894022e-39
0.59882683 -0.24086632 0.75134778 2.951796e-39
0.6056338 -0.24495715 0.75567603 3.5975465e-39
0.61433595 -0.24589737 0.75928754 4.4280513e-39
0.62557471 -0.24456993 0.75923729 4.9816034e-39
0.63528901 -0.24528146 0.75793928 4.9812447e-39
0.64488751 -0.24475124 0.75588012 4.9816048e-39
0.65348572 -0.2458681 0.75314039 4.889405e-39
0.5960831 -0.23400423 0.7551952 3.3209498e-39
0.60268623 -0.23640576 0.75879091 4.3358543e-39
0.61563826 -0.23425464 0.75888693 4.8894064e-39
0.62484223 -0.2350737 0.75789672 4.9816034e-39
0.63485956 -0.23536853 0.75593442 4.9816048e-39
0.64382046 -0.23569129 0.75378329 4.8894078e-39
0.6514678 -0.23770978 0.7503503 4.5206043e-39
0.58759719 -0.22344406 0.75391489 3.0443573e-39
0.59340161 -0.22561182 0.75823641 4.059259e-39
0.60636872 -0.22536395 0.75940031 4.9816048e-39
0.61530149 -0.22504008 0.75777489 4.9816048e-39
0.62461251 -0.22500548 0.75604153 4.9812447e-39
0.63469654 -0.22541104 0.75363821 4.9812447e-39
0.64159811 -0.22619739 0.75103688 4.9815922e-39
0.57939571 -0.21169856 0.75227439 2.951796e-39
0.58489865 -0.21533436 0.75652319 3.5979095e-39
0.59172952 -0.21794045 0.75974232 4.7050081e-39
0.60496491 -0.21459496 0.75879073 5.0738033e-39
0.61503196 -0.21526235 0.75633699 5.0738019e-39
0.62467134 -0.21523872 0.75409102 4.9816076e-39
0.63205814 -0.21654038 0.75154573 5.0737963e-39
0.56954074 -0.20058657 0.75022179 3.043993e-39
0.57565933 -0.20425011 0.75515389 3.4131469e-39
0.5840587 -0.20652518 0.75943643 4.5206141e-39
0.59776241 -0.20324917 0.75947934 5.0738033e-39
0.60491043 -0.20533746 0.75773787 5.0738033e-39
0.61522162 -0.2048208 0.7548371 5.0738033e-39
0.62390012 -0.20633143 0.75245637 5.0737991e-39
0.56692559 -0.19409338 0.75463033 3.22875e-39
0.57244456 -0.19715109 0.75809216 3.6901023e-39
0.59619004 -0.19447842 0.7589075 6.2719751e-39
0.60519725 -0.19485049 0.75647348 5.0738033e-39
0.61429989 -0.19575599 0.75368178 5.0734417e-39
0.62114429 -0.19636266 0.75020587 5.4422032e-39
0.5582698 -0.18289952 0.75341713 2.9521589e-39
0.56252289 -0.18653354 0.75657374 3.2291129e-39
0.57217664 -0.18451069 0.75812119 2.7806974e-39
0.58747482 -0.18384925 0.75960922 1.5021751e-38
0.59476751 -0.1845441 0.75798821 1.3551726e-38
0.60432577 -0.18562973 0.75509703 5.0734431e-39
0.6121484 -0.18723111 0.75161946 5.0734361e-39
0.54947662 -0.17199406 0.75053751 3.32131e-39
0.55475807 -0.1750447 0.75550455 3.320947e-39
0.57782191 -0.17241776 0.75949764 1.1791293e-38
0.58518642 -0.17495689 0.75827503 1.0312197e-38
0.59475821 -0.17518754 0.75619465 1.2995648e-38
0.60351449 -0.17636988 0.75233185 4.9816006e-39
0.54762936 -0.16434519 0.75340277 3.3209498e-39
0.55312407 -0.16409168 0.75812984 3.8744992e-39
0.56571424 -0.16276848 0.75926298 1.3642076e-38
0.57498497 -0.16462845 0.75822169 1.1051925e-38
0.58467156 -0.16507226 0.75645262 1.0042149e-38
0.59395415 -0.16595502 0.75352859 5.7184356e-39
0.54852521 -0.15586875 0.75194323 3.4131483e-39
0.55444342 -0.15468389 0.75609547 4.0585163e-39
0.56494719 -0.1552299 0.75749171 1.0325625e-38
0.57517111 -0.1547882 0.75520533 1.3636292e-38
0.58438706 -0.15610106 0.7535097 1.4843534e-38
0.59278172 -0.15992986 0.7518056 4.9812433e-39
0.55625844 -0.14808069 0.7545439 3.3209512e-39
0.56493634 -0.14716996 0.75532568 4.2432859e-39
0.57392424 -0.14723568 0.75250697 1.0235242e-38
0.45398459 0.049118735 0.75792658 5.8083247e-39
0.44874141 0.053247917 0.75740761 8.3064685e-39
0.45249802 0.054469675 0.75602269 6.6405685e-39
0.45727208 0.063061744 0.75488418 8.3064685e-39
0.46378443 0.067877583 0.75505823 8.0288166e-39
0.46842355 0.070998155 0.7538597 7.1916151e-39
0.47480893 0.075475544 0.75516462 1.1432258e-38
0.48124745 0.079878531 0.75598747 1.1616649e-38
0.48527819 0.08269053 0.75474155 1.0418106e-38
0.49324957 0.087653443 0.75501204 1.0049322e-38
0.49835905 0.090791345 0.7552346 1.0233715e-38
0.50472569 0.094680957 0.75545001 9.6805341e-39
0.51147789 0.09886653 0.75449795 9.4965016e-39
0.51684731 0.10213055 0.7546252 9.6801474e-39
0.5250957 0.10709879 0.75469625 9.3116815e-39
0.53436238 0.11283473 0.75553584 8.9464471e-39
0.54327101 0.11798032 0.75466669 8.5812547e-39
0.54679978 0.12178465 0.75476778 8.3061084e-39
0.45365471 -0.41190982 0.7647084 6.707245e-39
