# .PCD v0.7 - Point Cloud Data file format
VERSION 0.7
FIELDS x y z rgb
SIZE 4 4 4 4
TYPE F F F F
COUNT 1 1 1 1
WIDTH 980
HEIGHT 1
VIEWPOINT 0 0 0 1 0 0 0
POINTS 980
DATA ascii
1.6152645 -1.5251867 -4.0531158e-06 4.978564e-39
1.6264777 -1.5246402 -4.0531158e-06 4.978564e-39
1.635389 -1.5255308 -4.1723251e-06 4.978564e-39
1.644961 -1.5255812 -4.1723251e-06 4.978564e-39
1.6564064 -1.525031 -4.2319298e-06 4.978564e-39
1.6655029 -1.5239773 -4.1325889e-06 4.978564e-39
1.6746621 -1.524877 -4.1127205e-06 4.978564e-39
1.6838727 -1.5257831 -4.1723251e-06 4.978564e-39
1.6931475 -1.5247211 -4.1723251e-06 4.978564e-39
1.7056001 -1.5252767 -4.2319298e-06 4.978564e-39
1.7150053 -1.5242059 -4.1723251e-06 4.978564e-39
1.7244768 -1.5251216 -4.2915344e-06 4.978564e-39
1.7340018 -1.5240437 -4.2915344e-06 4.978564e-39
1.7435944 -1.5249647 -4.2319298e-06 4.978564e-39
1.7564758 -1.5255307 -4.2915344e-06 4.978564e-39
1.7662054 -1.5244426 -4.2915344e-06 4.978564e-39
1.7760053 -1.5253745 -4.2319298e-06 4.978564e-39
1.7858615 -1.5242791 -4.4107437e-06 4.978564e-39
1.7957886 -1.5252167 -4.3511391e-06 4.978564e-39
1.8057734 -1.5241133 -4.4107437e-06 4.978564e-39
1.8158305 -1.5250566 -4.4107437e-06 4.978564e-39
1.8259462 -1.5239455 -4.4107437e-06 4.978564e-39
1.836136 -1.5248942 -4.3511391e-06 4.978564e-39
1.8463856 -1.5258503 -4.4107437e-06 4.978564e-39
1.8532587 -1.5251045 -4.4107437e-06 4.978564e-39
1.8643229 -1.5251573 -4.4822691e-06 4.978564e-39
1.8740615 -1.5249408 -4.4107437e-06 4.978564e-39
1.8845711 -1.5259078 -4.4703484e-06 4.978564e-39
1.8951433 -1.5247748 -4.529953e-06 4.978564e-39
1.9065065 -1.5248271 -4.6491623e-06 4.978564e-39
1.9165093 -1.5246063 -4.4902167e-06 4.978564e-39
1.9236957 -1.5259675 -4.529953e-06 4.978564e-39
1.9345403 -1.5248196 -4.529953e-06 4.978564e-39
1.9454504 -1.523665 -4.6491623e-06 4.978564e-39
1.952768 -1.5250362 -4.6491623e-06 4.978564e-39
1.9638112 -1.5260277 -4.5895576e-06 4.978564e-39
1.9749217 -1.5248666 -4.6491623e-06 4.978564e-39
1.9868662 -1.5249206 -4.6014784e-06 4.978564e-39
1.9973823 -1.5246948 -4.6491623e-06 4.978564e-39
2.0049384 -1.5260906 -4.6491623e-06 4.978564e-39
2.0125294 -1.5253072 -4.6491623e-06 4.978564e-39
2.0239868 -1.5241252 -4.7087669e-06 4.978564e-39
2.0355151 -1.5251365 -4.6491623e-06 4.978564e-39
2.0432489 -1.5265496 -4.6491623e-06 4.978564e-39
2.0549221 -1.5253607 -4.6491623e-06 4.978564e-39
2.0666685 -1.5241644 -4.7683716e-06 4.978564e-39
2.0745487 -1.5233619 -4.7683716e-06 4.978564e-39
2.0824664 -1.5247878 -4.8875809e-06 4.978564e-39
2.094418 -1.5258182 -4.7683716e-06 4.978564e-39
2.1064453 -1.5246093 -4.8875809e-06 4.978564e-39
2.1145146 -1.5237982 -4.7683716e-06 4.978564e-39
2.1226227 -1.5252419 -4.8875809e-06 4.978564e-39
2.1348629 -1.5262867 -4.8875809e-06 4.978564e-39
2.147182 -1.5250649 -4.8875809e-06 4.978564e-39
2.1554475 -1.5242453 -4.8875809e-06 4.978564e-39
2.163753 -1.5234214 -4.8875809e-06 4.978564e-39
2.2321665 -1.5266007 -0.00053485757 4.978564e-39
2.240356 -1.5251722 -4.8875809e-06 4.978564e-39
2.3665528 -1.5202552 -5.2452087e-06 4.978564e-39
0.97986585 -1.5105109 -3.3378601e-06 4.978564e-39
0.98584121 -1.5135781 -3.3775966e-06 4.978564e-39
0.99462348 -1.5148281 -3.2901764e-06 4.978564e-39
1.0048107 -1.5150752 -3.4213067e-06 4.978564e-39
1.0165665 -1.5144904 -3.2544135e-06 4.978564e-39
1.0254604 -1.5155754 -3.2782555e-06 4.978564e-39
1.0351795 -1.5147154 -3.2544135e-06 4.978564e-39
1.0453229 -1.5155036 -0.00017054952 4.978564e-39
1.0556222 -1.5140947 -3.3378601e-06 4.978564e-39
1.0648286 -1.5151981 -3.3855438e-06 4.978564e-39
1.0748792 -1.5143204 -3.3974648e-06 4.978564e-39
1.084239 -1.5154339 -3.4570694e-06 4.978564e-39
1.0944575 -1.5145499 -3.4570694e-06 4.978564e-39
1.1039747 -1.5156736 -3.4928321e-06 4.978564e-39
1.1143656 -1.514783 -3.4570694e-06 4.978564e-39
1.1244481 -1.5149025 -3.5047531e-06 4.978564e-39
1.1346116 -1.5150204 -3.5762787e-06 4.978564e-39
1.1448665 -1.5151417 -3.4570694e-06 4.978564e-39
1.1555804 -1.5151131 -0.00070137752 4.978564e-39
1.1656364 -1.5148447 -3.4968059e-06 4.978564e-39
1.1761526 -1.5155072 -3.5762787e-06 4.978564e-39
1.1846336 -1.514299 -3.5762787e-06 4.978564e-39
1.194892 -1.5154648 -3.6239624e-06 4.978564e-39
1.2060953 -1.5145391 -3.695488e-06 4.978564e-39
1.2147857 -1.5149684 -3.6358833e-06 4.978564e-39
1.2235371 -1.5153981 -3.6358833e-06 4.978564e-39
1.2345667 -1.5149702 -3.6160152e-06 4.978564e-39
1.2456876 -1.5156518 -3.695488e-06 4.978564e-39
1.2546583 -1.5144097 -3.6358833e-06 4.978564e-39
1.2636933 -1.5148473 -3.7550926e-06 4.978564e-39
1.2750816 -1.5149711 -3.7352245e-06 4.978564e-39
1.2865663 -1.5151001 -3.7550926e-06 4.978564e-39
1.2958313 -1.5155426 -3.7550926e-06 4.978564e-39
1.3054506 -1.5146397 -0.00015857641 4.978564e-39
1.3150363 -1.5156895 -3.8146973e-06 4.978564e-39
1.3240341 -1.5151672 -3.8146973e-06 4.978564e-39
1.3335732 -1.5138845 -3.8146973e-06 4.978564e-39
1.3431826 -1.5160723 -3.8146973e-06 4.978564e-39
1.3528637 -1.5147834 -3.9339066e-06 4.978564e-39
1.3650705 -1.5149152 -3.9041042e-06 4.978564e-39
1.3773819 -1.5150446 -3.8743019e-06 4.978564e-39
1.3868195 -1.5145091 -3.8623812e-06 4.978564e-39
1.3973292 -1.5159674 -3.8743019e-06 4.978564e-39
1.407416 -1.5146514 -3.8743019e-06 4.978564e-39
1.4150289 -1.5136584 -3.9339066e-06 4.978564e-39
1.4232019 -1.5154617 -3.9339066e-06 4.978564e-39
1.4329697 -1.5149168 -3.9339066e-06 4.978564e-39
1.4428084 -1.5143697 -3.9815905e-06 4.978564e-39
1.4537665 -1.5158582 -3.9339066e-06 4.978564e-39
1.4642853 -1.5145139 -3.9339066e-06 4.978564e-39
1.4748857 -1.5149864 -3.8743019e-06 4.978564e-39
1.4855685 -1.5154629 -3.8743019e-06 4.978564e-39
1.4963347 -1.5141014 -3.8146973e-06 4.978564e-39
1.5077304 -1.5156201 -4.0054319e-06 4.978564e-39
1.515377 -1.5154022 -3.9339066e-06 4.978564e-39
1.5236225 -1.5143703 -3.9935112e-06 4.978564e-39
1.5346887 -1.5148528 -3.9339066e-06 4.978564e-39
1.5458428 -1.515339 -3.9935112e-06 4.978564e-39
1.5565219 -1.5147705 -4.0054319e-06 4.978564e-39
1.565575 -1.514784 -3.9339066e-06 4.978564e-39
1.5741206 -1.5156254 -4.0531158e-06 4.978564e-39
1.5855913 -1.5142204 -4.1127205e-06 4.978564e-39
1.5942523 -1.5150666 -4.1723251e-06 4.978564e-39
1.603555 -1.5150822 -4.1246412e-06 4.978564e-39
1.6146768 -1.5144992 -4.0531158e-06 4.978564e-39
1.6264777 -1.5149978 -4.0531158e-06 4.978564e-39
1.635389 -1.5158588 -4.1723251e-06 4.978564e-39
1.6443611 -1.5147837 -4.1723251e-06 4.978564e-39
1.6564065 -1.5152889 -4.2319298e-06 4.978564e-39
1.6655029 -1.5142051 -4.1723251e-06 4.978564e-39
1.6746622 -1.5150741 -4.1127205e-06 4.978564e-39
1.6838727 -1.5139828 -4.1723251e-06 4.978564e-39
1.6931474 -1.5148568 -4.1723251e-06 4.978564e-39
1.7056001 -1.5153708 -4.2319298e-06 4.978564e-39
1.7150053 -1.5142689 -4.1723251e-06 4.978564e-39
1.7244767 -1.5151529 -4.2915344e-06 4.978564e-39
1.7340018 -1.5140435 -4.2915344e-06 4.978564e-39
1.7435488 -1.514848 -0.00013197899 4.978564e-39
1.7564757 -1.5154555 -4.2915344e-06 4.978564e-39
1.7662055 -1.5143349 -4.2915344e-06 4.978564e-39
1.7760054 -1.5152346 -4.2319298e-06 4.978564e-39
1.7858615 -1.5141062 -4.4107437e-06 4.978564e-39
1.7957885 -1.5150107 -4.3511391e-06 4.978564e-39
1.8057734 -1.5138743 -4.4107437e-06 4.978564e-39
1.8158306 -1.5147839 -4.4107437e-06 4.978564e-39
1.8259462 -1.5157005 -4.4107437e-06 4.978564e-39
1.836136 -1.5145541 -4.4107437e-06 4.978564e-39
1.8463856 -1.5154761 -4.4107437e-06 4.978564e-39
1.8532587 -1.5147074 -4.4107437e-06 4.978564e-39
1.8636295 -1.5156341 -4.4703484e-06 4.978564e-39
1.8740615 -1.5144743 -4.4107437e-06 4.978564e-39
1.8845711 -1.5154063 -4.4703484e-06 4.978564e-39
1.8951432 -1.5142384 -4.529953e-06 4.978564e-39
1.9057944 -1.5151757 -4.6491623e-06 4.978564e-39
1.9165094 -1.5139987 -4.529953e-06 4.978564e-39
1.9236957 -1.5153357 -4.529953e-06 4.978564e-39
1.933815 -1.5150855 -4.529953e-06 4.978564e-39
1.9454504 -1.5151017 -4.6491623e-06 4.978564e-39
1.952768 -1.5143077 -4.6491623e-06 4.978564e-39
1.963811 -1.5152626 -4.5895576e-06 4.978564e-39
1.9749217 -1.5162249 -4.6491623e-06 4.978564e-39
1.9861176 -1.515025 -4.5895576e-06 4.978564e-39
1.9973823 -1.5138178 -4.6491623e-06 4.978564e-39
2.0049384 -1.5151886 -4.6491623e-06 4.978564e-39
2.0125294 -1.51438 -4.7286353e-06 4.978564e-39
2.0239868 -1.5153528 -4.7087669e-06 4.978564e-39
2.0355151 -1.5141325 -4.6491623e-06 4.978564e-39
2.0432489 -1.51552 -4.6491623e-06 4.978564e-39
2.0541415 -1.5152609 -4.6491623e-06 4.978564e-39
2.0666685 -1.5152783 -4.7683716e-06 4.978564e-39
2.0745487 -1.5144548 -4.7683716e-06 4.978564e-39
2.0824664 -1.5136275 -4.8875809e-06 4.978564e-39
2.0936186 -1.5155985 -4.7683716e-06 4.978564e-39
2.1064453 -1.5156174 -4.8875809e-06 4.978564e-39
2.1145146 -1.5147848 -4.7683716e-06 4.978564e-39
2.1226227 -1.5139482 -4.8875809e-06 4.978564e-39
2.1340442 -1.515944 -4.8875809e-06 4.978564e-39
2.147182 -1.5159645 -4.8875809e-06 4.978564e-39
2.1554475 -1.5151229 -4.8875809e-06 4.978564e-39
2.163753 -1.514277 -4.8875809e-06 4.978564e-39
2.3665528 -1.5154129 -5.2452087e-06 4.978564e-39
0.96801305 -1.5014457 -3.2186508e-06 4.978564e-39
0.97674549 -1.5046437 -3.2633543e-06 4.978564e-39
0.98524255 -1.5051613 -3.3378601e-06 4.978564e-39
0.99426121 -1.5052342 -3.2981236e-06 4.978564e-39
1.0051758 -1.5050213 -3.4093857e-06 4.978564e-39
1.0161971 -1.5048034 -3.2583873e-06 4.978564e-39
1.0251945 -1.5055736 -3.2697405e-06 4.978564e-39
1.0348042 -1.5049497 -3.2583873e-06 4.978564e-39
1.0457698 -1.5052047 -3.4137206e-06 4.978564e-39
1.0556222 -1.5048038 -3.3378601e-06 4.978564e-39
1.0652131 -1.5048792 -3.3736228e-06 4.978564e-39
1.0748792 -1.5049528 -3.3974648e-06 4.978564e-39
1.0846299 -1.5050292 -3.4570694e-06 4.978564e-39
1.0944575 -1.5051039 -3.4570694e-06 4.978564e-39
1.1043723 -1.5051816 -3.528595e-06 4.978564e-39
1.1150059 -1.5057676 -5.8117679e-05 4.978564e-39
1.1244485 -1.5048053 -3.4968059e-06 4.978564e-39
1.1346115 -1.505414 -3.5762787e-06 4.978564e-39
1.145279 -1.5044675 -3.4570694e-06 4.978564e-39
1.1552042 -1.5055732 -3.5762787e-06 4.978564e-39
1.1660556 -1.5046194 -3.528595e-06 4.978564e-39
1.1761526 -1.5057348 -3.5762787e-06 4.978564e-39
1.1846336 -1.5044928 -3.5762787e-06 4.978564e-39
1.195321 -1.5051184 -3.6160152e-06 4.978564e-39
1.2060956 -1.5046473 -3.695488e-06 4.978564e-39
1.2147857 -1.505042 -3.6557515e-06 4.978564e-39
1.2235371 -1.5054368 -3.6358833e-06 4.978564e-39
1.2345666 -1.5049644 -3.6160152e-06 4.978564e-39
1.2456877 -1.5056018 -3.695488e-06 4.978564e-39
1.2546583 -1.5043238 -3.6358833e-06 4.978564e-39
1.2641467 -1.5056727 -3.7670136e-06 4.978564e-39
1.2750818 -1.5048038 -3.7352245e-06 4.978564e-39
1.2865663 -1.5048867 -3.7550926e-06 4.978564e-39
1.2958312 -1.5052924 -3.7550926e-06 4.978564e-39
1.3051639 -1.5039878 -3.7550926e-06 4.978564e-39
1.3145645 -1.5061154 -3.8146973e-06 4.978564e-39
1.3240341 -1.5048041 -3.8146973e-06 4.978564e-39
1.3341516 -1.5046512 -0.00099871668 4.978564e-39
1.3431826 -1.5056328 -3.8146973e-06 4.978564e-39
1.3528634 -1.5043054 -3.9339066e-06 4.978564e-39
1.3656822 -1.5056195 -3.8892031e-06 4.978564e-39
1.3773819 -1.5044686 -3.8743019e-06 4.978564e-39
1.3878168 -1.5058839 -3.8862227e-06 4.978564e-39
1.3973292 -1.5053118 -3.8743019e-06 4.978564e-39
1.4074159 -1.5039555 -3.8743019e-06 4.978564e-39
1.4150289 -1.5047197 -3.9339066e-06 4.978564e-39
1.4226899 -1.5054874 -3.9339066e-06 4.978564e-39
1.4329696 -1.5041189 -3.9339066e-06 4.978564e-39
1.443848 -1.5055625 -4.0054319e-06 4.978564e-39
1.4537665 -1.5049772 -3.9935112e-06 4.978564e-39
1.4637573 -1.5043892 -3.9577485e-06 4.978564e-39
1.4748856 -1.5058488 -3.8743019e-06 4.978564e-39
1.4855685 -1.504455 -3.8743019e-06 4.978564e-39
1.4963348 -1.5048921 -3.8146973e-06 4.978564e-39
1.5071856 -1.5053328 -3.9935112e-06 4.978564e-39
1.515377 -1.5042748 -3.9339066e-06 4.978564e-39
1.5236225 -1.5050703 -4.0531158e-06 4.978564e-39
1.5346886 -1.5055157 -3.9339066e-06 4.978564e-39
1.545283 -1.5049125 -3.9815905e-06 4.978564e-39
1.5576507 -1.5055943 -3.9815905e-06 4.978564e-39
1.565575 -1.5053443 -3.9339066e-06 4.978564e-39
1.5741206 -1.5042635 -4.0531158e-06 4.978564e-39
1.5855913 -1.504714 -4.1127205e-06 4.978564e-39
1.5942522 -1.5055314 -4.1723251e-06 4.978564e-39
1.6029719 -1.5044403 -4.1127205e-06 4.978564e-39
1.614677 -1.504896 -4.0531158e-06 4.978564e-39
1.6264777 -1.5053555 -4.0531158e-06 4.978564e-39
1.635389 -1.5042523 -4.1723251e-06 4.978564e-39
1.6443613 -1.5050819 -4.1723251e-06 4.978564e-39
1.6564068 -1.5055469 -4.2319298e-06 4.978564e-39
1.6655029 -1.5044328 -4.1723251e-06 4.978564e-39
1.6746624 -1.5052716 -4.2319298e-06 4.978564e-39
1.6838727 -1.5041494 -4.1723251e-06 4.978564e-39
1.6931473 -1.5049926 -4.1723251e-06 4.978564e-39
1.7056001 -1.505465 -4.2319298e-06 4.978564e-39
1.7150053 -1.5043318 -4.1723251e-06 4.978564e-39
1.7244768 -1.5051845 -4.2915344e-06 4.978564e-39
1.7340018 -1.5040431 -4.2915344e-06 4.978564e-39
1.7435944 -1.5049002 -4.2319298e-06 4.978564e-39
1.7564756 -1.5053805 -4.3312707e-06 4.978564e-39
1.7662054 -1.5042276 -4.2915344e-06 4.978564e-39
1.7760053 -1.5050944 -4.2319298e-06 4.978564e-39
1.7858615 -1.5039333 -4.4107437e-06 4.978564e-39
1.7957886 -1.5048047 -4.3511391e-06 4.978564e-39
1.8057734 -1.5056829 -4.4107437e-06 4.978564e-39
1.8158305 -1.5045112 -4.4107437e-06 4.978564e-39
1.8259462 -1.5053941 -4.4107437e-06 4.978564e-39
1.8354547 -1.505121 -4.4822691e-06 4.978564e-39
1.8463856 -1.5051017 -4.4107437e-06 4.978564e-39
1.8532587 -1.5043101 -4.4107437e-06 4.978564e-39
1.8636295 -1.5052023 -4.4703484e-06 4.978564e-39
1.8740615 -1.5061011 -4.4107437e-06 4.978564e-39
1.8845711 -1.504905 -4.4703484e-06 4.978564e-39
1.8951433 -1.5037017 -4.529953e-06 4.978564e-39
1.9050821 -1.505531 -4.6491623e-06 4.978564e-39
1.9165094 -1.5055126 -4.529953e-06 4.978564e-39
1.9236958 -1.5047042 -4.5895576e-06 4.978564e-39
1.9352653 -1.5046842 -4.529953e-06 4.978564e-39
1.9454504 -1.5043977 -4.6491623e-06 4.978564e-39
1.952768 -1.5057251 -4.6491623e-06 4.978564e-39
1.963811 -1.5044973 -4.5895576e-06 4.978564e-39
1.9749217 -1.5054227 -4.6491623e-06 4.978564e-39
1.985369 -1.5051365 -4.5776369e-06 4.978564e-39
1.9973823 -1.5051162 -4.6491623e-06 4.978564e-39
2.0049384 -1.5042865 -4.6491623e-06 4.978564e-39
2.0125294 -1.5034528 -4.7683716e-06 4.978564e-39
2.0232205 -1.5053493 -4.6968462e-06 4.978564e-39
2.0355151 -1.5053296 -4.6491623e-06 4.978564e-39
2.0432489 -1.5044904 -4.6491623e-06 4.978564e-39
2.0557027 -1.5044689 -4.6491623e-06 4.978564e-39
2.0666685 -1.5063925 -4.7683716e-06 4.978564e-39
2.0745487 -1.5055479 -4.7683716e-06 4.978564e-39
2.0824664 -1.5046995 -4.8875809e-06 4.978564e-39
2.0952172 -1.5046785 -4.7683716e-06 4.978564e-39
2.1064453 -1.5066257 -4.8875809e-06 4.978564e-39
2.1145151 -1.5057716 -5.0067902e-06 4.978564e-39
2.1226227 -1.5049132 -4.8875809e-06 4.978564e-39
2.1356816 -1.5048929 -4.8875809e-06 4.978564e-39
2.147182 -1.5045891 -4.8875809e-06 4.978564e-39
2.1554475 -1.5060004 -4.8875809e-06 4.978564e-39
2.163753 -1.5051324 -4.8875809e-06 4.978564e-39
2.1889133 -1.5048059 -4.8875809e-06 4.978564e-39
2.1950462 -1.5058137 -0.0010809026 4.978564e-39
0.95628506 -1.4924754 -3.2186508e-06 4.978564e-39
0.96565968 -1.4948794 -3.2186508e-06 4.978564e-39
0.97597605 -1.4950805 -3.2511625e-06 4.978564e-39
0.98524255 -1.4946499 -3.3378601e-06 4.978564e-39
0.99393183 -1.4951462 -3.3053484e-06 4.978564e-39
1.005542 -1.4949632 -3.4213067e-06 4.978564e-39
1.015828 -1.4951216 -3.2901764e-06 4.978564e-39
1.0257261 -1.4950091 -3.2867704e-06 4.978564e-39
1.0344293 -1.495189 -3.2544135e-06 4.978564e-39
1.0464934 -1.4944923 -3.4213067e-06 4.978564e-39
1.0556222 -1.495513 -3.3378601e-06 4.978564e-39
1.065599 -1.4945555 -3.3855438e-06 4.978564e-39
1.0748792 -1.4955848 -3.3974648e-06 4.978564e-39
1.0850222 -1.4946196 -3.4570694e-06 4.978564e-39
1.0944575 -1.4956579 -3.4570694e-06 4.978564e-39
1.104771 -1.4946849 -3.540516e-06 4.978564e-39
1.1143656 -1.4957319 -3.4570694e-06 4.978564e-39
1.1248537 -1.4947512 -3.4928321e-06 4.978564e-39
1.1346116 -1.4958075 -3.5762787e-06 4.978564e-39
1.1448669 -1.4942374 -3.4570694e-06 4.978564e-39
1.1552042 -1.4958844 -3.5762787e-06 4.978564e-39
1.1656364 -1.4943012 -3.5365422e-06 4.978564e-39
1.1761526 -1.4959625 -3.5762787e-06 4.978564e-39
1.1846336 -1.4946866 -3.5762787e-06 4.978564e-39
1.195321 -1.4952695 -3.6160152e-06 4.978564e-39
1.2060953 -1.4947553 -3.695488e-06 4.978564e-39
1.2147858 -1.4951154 -3.695488e-06 4.978564e-39
1.223537 -1.4954752 -3.6358833e-06 4.978564e-39
1.2345667 -1.4949589 -3.6160152e-06 4.978564e-39
1.2456876 -1.4955517 -3.695488e-06 4.978564e-39
1.2546583 -1.4942379 -3.6358833e-06 4.978564e-39
1.2636935 -1.4962889 -3.7550926e-06 4.978564e-39
1.2750818 -1.4946363 -3.7749608e-06 4.978564e-39
1.2870278 -1.4956276 -3.7670136e-06 4.978564e-39
1.2958313 -1.495042 -3.7550926e-06 4.978564e-39
1.3046956 -1.494454 -3.7670136e-06 4.978564e-39
1.3145643 -1.4957904 -3.8146973e-06 4.978564e-39
1.3240341 -1.4944414 -3.8146973e-06 4.978564e-39
1.3340518 -1.4957892 -3.8146973e-06 4.978564e-39
1.3431826 -1.4951934 -3.8146973e-06 4.978564e-39
1.3523777 -1.4945952 -3.9339066e-06 4.978564e-39
1.3650697 -1.4956137 -3.8941703e-06 4.978564e-39
1.3773819 -1.4938927 -3.8743019e-06 4.978564e-39
1.3873181 -1.4960423 -3.8743019e-06 4.978564e-39
1.397329 -1.4946561 -3.8743019e-06 4.978564e-39
1.4069097 -1.4940434 -3.8862227e-06 4.978564e-39
1.4143376 -1.4958835 -0.00021286769 4.978564e-39
1.4226899 -1.4947305 -3.9339066e-06 4.978564e-39
1.4324538 -1.4941121 -3.9100646e-06 4.978564e-39
1.4433283 -1.4955136 -3.9935112e-06 4.978564e-39
1.4537665 -1.4940962 -3.9935112e-06 4.978564e-39
1.4648132 -1.4955101 -3.9100646e-06 4.978564e-39
1.4748856 -1.4948832 -3.8743019e-06 4.978564e-39
1.4850323 -1.4942535 -3.8623812e-06 4.978564e-39
1.4963349 -1.4956827 -3.8146973e-06 4.978564e-39
1.5071858 -1.4942384 -3.9935112e-06 4.978564e-39
1.515377 -1.4950023 -3.9339066e-06 4.978564e-39
1.5236225 -1.4957703 -4.1127205e-06 4.978564e-39
1.5346886 -1.4943115 -3.9339066e-06 4.978564e-39
1.5464028 -1.4957688 -4.0054319e-06 4.978564e-39
1.5570861 -1.4951242 -3.9935112e-06 4.978564e-39
1.565575 -1.4940166 -3.9339066e-06 4.978564e-39
1.5741206 -1.4947953 -4.0531158e-06 4.978564e-39
1.5855913 -1.4952077 -4.1127205e-06 4.978564e-39
1.5942522 -1.4940892 -4.1723251e-06 4.978564e-39
1.602972 -1.494876 -4.1723251e-06 4.978564e-39
1.6146768 -1.4952928 -4.0531158e-06 4.978564e-39
1.6258852 -1.4946325 -4.0531158e-06 4.978564e-39
1.635389 -1.4945803 -4.1723251e-06 4.978564e-39
1.6443614 -1.4953799 -4.1723251e-06 4.978564e-39
1.6558018 -1.4947131 -4.2438505e-06 4.978564e-39
1.6655029 -1.4946605 -4.1723251e-06 4.978564e-39
1.6746622 -1.4954687 -4.2517981e-06 4.978564e-39
1.6838727 -1.494316 -4.1723251e-06 4.978564e-39
1.6931473 -1.4951283 -4.1723251e-06 4.978564e-39
1.7056001 -1.4955593 -4.2319298e-06 4.978564e-39
1.7150053 -1.4943948 -4.1723251e-06 4.978564e-39
1.7244768 -1.4952159 -4.2915344e-06 4.978564e-39
1.7340018 -1.4940429 -4.2915344e-06 4.978564e-39
1.7435943 -1.4948679 -4.2319298e-06 4.978564e-39
1.7564757 -1.4953054 -4.4107437e-06 4.978564e-39
1.7662055 -1.4941201 -4.2915344e-06 4.978564e-39
1.7760054 -1.4949545 -4.2319298e-06 4.978564e-39
1.7858615 -1.495795 -4.4107437e-06 4.978564e-39
1.7957885 -1.4945989 -4.3511391e-06 4.978564e-39
1.8057734 -1.4954438 -4.4107437e-06 4.978564e-39
1.8151581 -1.4951419 -4.4107437e-06 4.978564e-39
1.8259462 -1.4950879 -4.4107437e-06 4.978564e-39
1.8368174 -1.4950348 -4.4584276e-06 4.978564e-39
1.8463856 -1.4947273 -4.4107437e-06 4.978564e-39
1.8532587 -1.4959924 -4.4107437e-06 4.978564e-39
1.8636295 -1.4947705 -4.4703484e-06 4.978564e-39
1.8740615 -1.4956347 -4.4107437e-06 4.978564e-39
1.8838685 -1.4953269 -4.4822691e-06 4.978564e-39
1.8951433 -1.4952724 -4.529953e-06 4.978564e-39
1.9065065 -1.4952186 -4.6491623e-06 4.978564e-39
1.9165093 -1.4949049 -4.529953e-06 4.978564e-39
1.9236958 -1.496199 -4.6491623e-06 4.978564e-39
1.9345403 -1.4949499 -4.529953e-06 4.978564e-39
1.9454504 -1.4936936 -4.6491623e-06 4.978564e-39
1.952768 -1.4949967 -4.6491623e-06 4.978564e-39
1.9638112 -1.4958854 -4.5895576e-06 4.978564e-39
1.9749217 -1.4946206 -4.6491623e-06 4.978564e-39
1.9868662 -1.4945632 -4.6014784e-06 4.978564e-39
1.9973823 -1.4964149 -4.6491623e-06 4.978564e-39
2.0049384 -1.4955647 -4.6491623e-06 4.978564e-39
2.0125294 -1.4947109 -4.7683716e-06 4.978564e-39
2.0247531 -1.4946531 -4.7206877e-06 4.978564e-39
2.0368249 -1.4972817 -0.00053065043 4.978564e-39
2.0432489 -1.4956667 -4.6491623e-06 4.978564e-39
2.0549221 -1.4943691 -4.6491623e-06 4.978564e-39
2.0666685 -1.495285 -4.7683716e-06 4.978564e-39
2.0745487 -1.4966409 -4.7683716e-06 4.978564e-39
2.0824664 -1.4957714 -4.8875809e-06 4.978564e-39
2.094418 -1.4944587 -4.7683716e-06 4.978564e-39
2.1064453 -1.4953856 -4.8875809e-06 4.978564e-39
2.1145151 -1.4967582 -5.0067902e-06 4.978564e-39
2.1226227 -1.4958782 -4.8875809e-06 4.978564e-39
2.1348629 -1.4945502 -4.8875809e-06 4.978564e-39
2.147182 -1.4932135 -4.8875809e-06 4.978564e-39
2.1554475 -1.4945974 -4.8875809e-06 4.978564e-39
2.163753 -1.4959879 -4.8875809e-06 4.978564e-39
2.240356 -1.4901154 -4.8875809e-06 4.978564e-39
0.93776798 -1.4818435 -3.2186508e-06 4.978564e-39
0.94544804 -1.4837937 -3.2054054e-06 4.978564e-39
0.95511955 -1.4847668 -3.2186508e-06 4.978564e-39
0.96530688 -1.485413 -3.2186508e-06 4.978564e-39
0.97665679 -1.4846877 -3.2663345e-06 4.978564e-39
0.98524255 -1.48564 -3.3378601e-06 4.978564e-39
0.99462354 -1.4846705 -3.2901764e-06 4.978564e-39
1.0051763 -1.4853262 -3.4173329e-06 4.978564e-39
1.0161967 -1.485016 -3.3020974e-06 4.978564e-39
1.0254604 -1.4850073 -3.2782555e-06 4.978564e-39
1.0348037 -1.4850011 -3.2663345e-06 4.978564e-39
1.0461144 -1.4846821 -3.4173329e-06 4.978564e-39
1.0553493 -1.4853823 -3.3378601e-06 4.978564e-39
1.0652137 -1.4846643 -3.4173329e-06 4.978564e-39
1.0746018 -1.4853703 -3.3889498e-06 4.978564e-39
1.0846304 -1.4846463 -3.4570694e-06 4.978564e-39
1.0941756 -1.485358 -3.4740992e-06 4.978564e-39
1.1043726 -1.484628 -3.5365422e-06 4.978564e-39
1.1140788 -1.4853456 -3.4911293e-06 4.978564e-39
1.1244485 -1.4846091 -3.4968059e-06 4.978564e-39
1.1343199 -1.4853328 -3.5592489e-06 4.978564e-39
1.1448669 -1.4845902 -3.4570694e-06 4.978564e-39
1.1549075 -1.48532 -3.5933085e-06 4.978564e-39
1.1656364 -1.4845709 -3.5365422e-06 4.978564e-39
1.1758507 -1.4853069 -3.5762787e-06 4.978564e-39
1.1846336 -1.4848804 -3.5762787e-06 4.978564e-39
1.1953208 -1.4854206 -3.6160152e-06 4.978564e-39
1.2060955 -1.4848634 -3.695488e-06 4.978564e-39
1.2147858 -1.4851888 -3.695488e-06 4.978564e-39
1.2235371 -1.4855136 -3.6358833e-06 4.978564e-39
1.2345666 -1.4849532 -3.6160152e-06 4.978564e-39
1.2456876 -1.4855018 -3.695488e-06 4.978564e-39
1.2546583 -1.4841522 -3.6358833e-06 4.978564e-39
1.2636933 -1.486167 -3.7550926e-06 4.978564e-39
1.2750816 -1.4844689 -3.7749608e-06 4.978564e-39
1.2865663 -1.4861609 -3.7550926e-06 4.978564e-39
1.2958312 -1.4847919 -3.7550926e-06 4.978564e-39
1.305164 -1.4851288 -3.7550926e-06 4.978564e-39
1.3145645 -1.4854654 -3.8146973e-06 4.978564e-39
1.3240341 -1.4840784 -3.8146973e-06 4.978564e-39
1.3335001 -1.4854902 -0.00040634192 4.978564e-39
1.3431826 -1.484754 -3.8146973e-06 4.978564e-39
1.3528637 -1.4850973 -3.9339066e-06 4.978564e-39
1.3650696 -1.4850869 -3.8941703e-06 4.978564e-39
1.376887 -1.4840934 -3.8623812e-06 4.978564e-39
1.3873181 -1.4854265 -3.8743019e-06 4.978564e-39
1.3973292 -1.4840006 -3.9140382e-06 4.978564e-39
1.4079221 -1.485345 -3.8623812e-06 4.978564e-39
1.4150289 -1.4850546 -3.9339066e-06 4.978564e-39
1.4230925 -1.484141 -6.8472094e-05 4.978564e-39
1.4334856 -1.4853309 -3.9577485e-06 4.978564e-39
1.4433283 -1.4846741 -3.9935112e-06 4.978564e-39
1.4537666 -1.4850286 -3.9935112e-06 4.978564e-39
1.4642853 -1.4853855 -3.9339066e-06 4.978564e-39
1.4743536 -1.4847233 -3.8623812e-06 4.978564e-39
1.4861047 -1.4853013 -3.8862227e-06 4.978564e-39
1.4963347 -1.4846315 -3.8146973e-06 4.978564e-39
1.5071857 -1.484993 -3.9935112e-06 4.978564e-39
1.515377 -1.4857297 -3.9339066e-06 4.978564e-39
1.5236225 -1.4846101 -4.1127205e-06 4.978564e-39
1.5346886 -1.4849746 -3.9339066e-06 4.978564e-39
1.5458428 -1.4853421 -3.9935112e-06 4.978564e-39
1.5565218 -1.4846599 -4.0054319e-06 4.978564e-39
1.565575 -1.4845769 -3.9339066e-06 4.978564e-39
1.5741206 -1.4853271 -4.0531158e-06 4.978564e-39
1.5850155 -1.4846381 -4.1246412e-06 4.978564e-39
1.5942523 -1.4845541 -4.1723251e-06 4.978564e-39
1.602972 -1.485312 -4.1723251e-06 4.978564e-39
1.6140893 -1.4846156 -4.0531158e-06 4.978564e-39
1.6270702 -1.4852229 -4.0531158e-06 4.978564e-39
1.635389 -1.4849081 -4.1723251e-06 4.978564e-39
1.6437614 -1.4845928 -4.1723251e-06 4.978564e-39
1.6570114 -1.4852062 -4.220009e-06 4.978564e-39
1.6655029 -1.4848882 -4.1723251e-06 4.978564e-39
1.6740501 -1.4845694 -4.2915344e-06 4.978564e-39
1.6838727 -1.4844825 -4.1723251e-06 4.978564e-39
1.6931473 -1.4852639 -4.1723251e-06 4.978564e-39
1.7049749 -1.4845457 -4.220009e-06 4.978564e-39
1.7150053 -1.4844577 -4.1723251e-06 4.978564e-39
1.7244768 -1.4852473 -4.2915344e-06 4.978564e-39
1.7340018 -1.4840426 -4.2915344e-06 4.978564e-39
1.7435944 -1.4848359 -4.2319298e-06 4.978564e-39
1.7564758 -1.4852303 -4.4107437e-06 4.978564e-39
1.7662055 -1.4860342 -4.2915344e-06 4.978564e-39
1.7760053 -1.4848142 -4.2319298e-06 4.978564e-39
1.7858615 -1.485622 -4.4107437e-06 4.978564e-39
1.7951248 -1.4852924 -4.3392183e-06 4.978564e-39
1.8057734 -1.4852047 -4.4107437e-06 4.978564e-39
1.8165029 -1.4851173 -4.4107437e-06 4.978564e-39
1.8259462 -1.4847816 -4.4107437e-06 4.978564e-39
1.8361361 -1.4856017 -4.4703484e-06 4.978564e-39
1.8463856 -1.4843531 -4.4107437e-06 4.978564e-39
1.8532587 -1.4855952 -4.4107437e-06 4.978564e-39
1.862936 -1.4852583 -4.4584276e-06 4.978564e-39
1.8740615 -1.4851682 -4.4107437e-06 4.978564e-39
1.8852737 -1.4850791 -4.4584276e-06 4.978564e-39
1.8951432 -1.4847358 -4.529953e-06 4.978564e-39
1.9057944 -1.4855739 -4.6491623e-06 4.978564e-39
1.9165094 -1.4842972 -4.529953e-06 4.978564e-39
1.9236959 -1.4855675 -4.6491623e-06 4.978564e-39
1.9338152 -1.4852226 -4.529953e-06 4.978564e-39
1.945569 -1.484128 -0.0004982308 4.978564e-39
1.952768 -1.4842682 -4.6491623e-06 4.978564e-39
1.963811 -1.4851202 -4.5895576e-06 4.978564e-39
1.9749217 -1.4859788 -4.6491623e-06 4.978564e-39
1.9861175 -1.4846747 -4.5895576e-06 4.978564e-39
1.9973617 -1.4856874 -0.00040254771 4.978564e-39
2.0049384 -1.4846627 -4.6491623e-06 4.978564e-39
2.0125294 -1.4859691 -4.7683716e-06 4.978564e-39
2.0239868 -1.4846495 -4.7087669e-06 4.978564e-39
2.0355151 -1.4855226 -4.6491623e-06 4.978564e-39
2.0432489 -1.4846373 -4.6491623e-06 4.978564e-39
2.0549221 -1.4855144 -4.6491623e-06 4.978564e-39
2.0666685 -1.4841774 -4.7683716e-06 4.978564e-39
2.0745487 -1.4855071 -4.7683716e-06 4.978564e-39
2.0824664 -1.4846112 -4.8875809e-06 4.978564e-39
2.094418 -1.4854987 -4.7683716e-06 4.978564e-39
2.1064453 -1.4841458 -4.8875809e-06 4.978564e-39
2.1145151 -1.4854914 -5.0067902e-06 4.978564e-39
2.122623 -1.4845847 -4.8875809e-06 4.978564e-39
2.1348629 -1.4854826 -4.8875809e-06 4.978564e-39
2.147182 -1.4841132 -4.8875809e-06 4.978564e-39
2.1554475 -1.4831945 -4.8875809e-06 4.978564e-39
2.163753 -1.4868433 -4.8875809e-06 4.978564e-39
2.2355266 -1.48611 -0.00074684381 4.978564e-39
2.240356 -1.4831041 -4.8875809e-06 4.978564e-39
2.3295805 -1.4854059 -5.2452087e-06 4.978564e-39
0.92493725 -1.4723744 -3.2186508e-06 4.978564e-39
0.93464625 -1.4746442 -3.2511625e-06 4.978564e-39
0.94467819 -1.4747491 -3.2186508e-06 4.978564e-39
0.95476997 -1.4753466 -3.2186508e-06 4.978564e-39
0.96598053 -1.4750667 -3.2186508e-06 4.978564e-39
0.97630024 -1.4751747 -3.2583873e-06 4.978564e-39
0.98524255 -1.4751287 -3.3378601e-06 4.978564e-39
0.99426121 -1.4750814 -3.2981236e-06 4.978564e-39
1.0048436 -1.4751925 -3.4137206e-06 4.978564e-39
1.0165665 -1.4749057 -3.2901764e-06 4.978564e-39
1.0251945 -1.4750092 -3.3208303e-06 4.978564e-39
1.0351795 -1.4748085 -3.2544135e-06 4.978564e-39
1.0461144 -1.4754291 -3.4173329e-06 4.978564e-39
1.0558951 -1.474674 -3.3378601e-06 4.978564e-39
1.0652137 -1.475335 -3.4173329e-06 4.978564e-39
1.0751566 -1.4745734 -3.4059797e-06 4.978564e-39
1.0846304 -1.4752393 -3.4570694e-06 4.978564e-39
1.0947396 -1.474471 -3.4400396e-06 4.978564e-39
1.1043726 -1.4751424 -3.5365422e-06 4.978564e-39
1.1143656 -1.4750948 -3.516674e-06 4.978564e-39
1.1244485 -1.4750434 -3.4968059e-06 4.978564e-39
1.1346116 -1.4749951 -3.5762787e-06 4.978564e-39
1.1448668 -1.4749428 -3.4570694e-06 4.978564e-39
1.1552042 -1.4748937 -3.5762787e-06 4.978564e-39
1.1656364 -1.4748405 -3.5762787e-06 4.978564e-39
1.1761526 -1.4747906 -3.5762787e-06 4.978564e-39
1.1846335 -1.4750743 -3.5762787e-06 4.978564e-39
1.1953204 -1.4750245 -3.6001206e-06 4.978564e-39
1.2060956 -1.4749714 -3.695488e-06 4.978564e-39
1.2147858 -1.4752622 -3.695488e-06 4.978564e-39
1.2235371 -1.4755521 -3.6557515e-06 4.978564e-39
1.2345666 -1.4749477 -3.6160152e-06 4.978564e-39
1.2456876 -1.4754518 -3.695488e-06 4.978564e-39
1.2546583 -1.4740664 -3.6358833e-06 4.978564e-39
1.2636933 -1.476045 -3.7550926e-06 4.978564e-39
1.2750819 -1.4743015 -3.7749608e-06 4.978564e-39
1.2868546 -1.4758142 -0.00054494099 4.978564e-39
1.2958313 -1.4745415 -3.7550926e-06 4.978564e-39
1.305164 -1.4748412 -3.7550926e-06 4.978564e-39
1.3145645 -1.4751401 -3.8146973e-06 4.978564e-39
1.3235588 -1.4744785 -3.8146973e-06 4.978564e-39
1.3341887 -1.4761323 -0.00028004978 4.978564e-39
1.3431827 -1.4743146 -3.8146973e-06 4.978564e-39
1.3533494 -1.4755942 -3.9339066e-06 4.978564e-39
1.3650696 -1.4745603 -3.8941703e-06 4.978564e-39
1.3778769 -1.475489 -3.8862227e-06 4.978564e-39
1.3873183 -1.474811 -3.8743019e-06 4.978564e-39
1.3968267 -1.4741294 -3.9339066e-06 4.978564e-39
1.4074159 -1.475433 -3.8743019e-06 4.978564e-39
1.4150289 -1.4743284 -3.9339066e-06 4.978564e-39
1.4221778 -1.4740087 -3.9339066e-06 4.978564e-39
1.4329697 -1.4753242 -3.9339066e-06 4.978564e-39
1.4428083 -1.4746327 -3.9815905e-06 4.978564e-39
1.4537665 -1.4759611 -3.9935112e-06 4.978564e-39
1.4642853 -1.4744625 -3.9339066e-06 4.978564e-39
1.4754177 -1.4758022 -3.8862227e-06 4.978564e-39
1.4855685 -1.4751 -3.8743019e-06 4.978564e-39
1.4957944 -1.4743943 -3.8146973e-06 4.978564e-39
1.5071856 -1.4757477 -3.9935112e-06 4.978564e-39
1.515377 -1.4746023 -3.9339066e-06 4.978564e-39
1.5230714 -1.4742719 -4.1007997e-06 4.978564e-39
1.5346886 -1.4756376 -3.9339066e-06 4.978564e-39
1.545283 -1.4749216 -3.9815905e-06 4.978564e-39
1.5576507 -1.4754717 -3.9815905e-06 4.978564e-39
1.565575 -1.4751372 -3.9339066e-06 4.978564e-39
1.5735495 -1.474802 -4.0531158e-06 4.978564e-39
1.5861671 -1.4753571 -4.1007997e-06 4.978564e-39
1.5942522 -1.4750189 -4.1723251e-06 4.978564e-39
1.6030902 -1.4746958 -0.00080640457 4.978564e-39
1.6152645 -1.4752401 -4.0531158e-06 4.978564e-39
1.6264777 -1.4744998 -4.0531158e-06 4.978564e-39
1.635389 -1.4752361 -4.1723251e-06 4.978564e-39
1.644961 -1.4751208 -4.1723251e-06 4.978564e-39
1.6564065 -1.4743724 -4.2319298e-06 4.978564e-39
1.6655029 -1.4751159 -4.1723251e-06 4.978564e-39
1.6752746 -1.4749991 -4.2915344e-06 4.978564e-39
1.6838727 -1.4746491 -4.2120614e-06 4.978564e-39
1.6931474 -1.4753996 -4.1723251e-06 4.978564e-39
1.7062254 -1.4748746 -4.2438505e-06 4.978564e-39
1.7150053 -1.4745207 -4.1723251e-06 4.978564e-39
1.7244768 -1.4752786 -4.2915344e-06 4.978564e-39
1.7340018 -1.4740424 -4.2915344e-06 4.978564e-39
1.7435945 -1.4748036 -4.2319298e-06 4.978564e-39
1.7564758 -1.4751554 -4.4107437e-06 4.978564e-39
1.7662054 -1.4759268 -4.2915344e-06 4.978564e-39
1.7760054 -1.4746742 -4.2319298e-06 4.978564e-39
1.7858615 -1.4754492 -4.4107437e-06 4.978564e-39
1.7964523 -1.4753287 -4.3630598e-06 4.978564e-39
1.8057734 -1.4749655 -4.4107437e-06 4.978564e-39
1.8151581 -1.4746011 -4.4107437e-06 4.978564e-39
1.8259462 -1.4744753 -4.4107437e-06 4.978564e-39
1.836136 -1.4752613 -4.4703484e-06 4.978564e-39
1.8463857 -1.4760537 -4.529953e-06 4.978564e-39
1.8532587 -1.475198 -4.4107437e-06 4.978564e-39
1.864323 -1.4750741 -4.4822691e-06 4.978564e-39
1.8740615 -1.4747018 -4.4107437e-06 4.978564e-39
1.8845711 -1.4755009 -4.4703484e-06 4.978564e-39
1.8951433 -1.4741991 -4.529953e-06 4.978564e-39
1.9057943 -1.4750019 -4.6491623e-06 4.978564e-39
1.9165094 -1.475811 -4.529953e-06 4.978564e-39
1.9236958 -1.4749357 -4.6491623e-06 4.978564e-39
1.9352653 -1.4748079 -4.529953e-06 4.978564e-39
1.9454504 -1.4744264 -4.6491623e-06 4.978564e-39
1.9538397 -1.4746914 -0.00050647417 4.978564e-39
1.9638112 -1.474355 -4.5895576e-06 4.978564e-39
1.9749217 -1.4751767 -4.6491623e-06 4.978564e-39
1.9861176 -1.4760032 -4.5895576e-06 4.978564e-39
1.9973823 -1.4746611 -4.6491623e-06 4.978564e-39
2.0049384 -1.4737606 -4.6491623e-06 4.978564e-39
2.0125294 -1.4750417 -4.7683716e-06 4.978564e-39
2.0239868 -1.4758772 -4.7087669e-06 4.978564e-39
2.0355151 -1.4745188 -4.6491623e-06 4.978564e-39
2.0432489 -1.4736078 -4.6491623e-06 4.978564e-39
2.0541415 -1.4754241 -4.6491623e-06 4.978564e-39
2.0666685 -1.4752915 -4.7683716e-06 4.978564e-39
2.0745487 -1.4743735 -4.7683716e-06 4.978564e-39
2.0824664 -1.4734511 -4.8875809e-06 4.978564e-39
2.0936186 -1.4752884 -4.7683716e-06 4.978564e-39
2.1064453 -1.4751539 -4.8875809e-06 4.978564e-39
2.1145151 -1.4742246 -5.0067902e-06 4.978564e-39
2.122623 -1.4732909 -4.8875809e-06 4.978564e-39
2.1340442 -1.4751498 -4.8875809e-06 4.978564e-39
2.147182 -1.4750128 -4.8875809e-06 4.978564e-39
2.1554475 -1.4740721 -4.8875809e-06 4.978564e-39
2.163753 -1.4754127 -4.8875809e-06 4.978564e-39
0.90721405 -1.461037 -3.2186508e-06 4.978564e-39
0.91441554 -1.4638624 -3.2697405e-06 4.978564e-39
0.9243958 -1.4647654 -3.2186508e-06 4.978564e-39
0.93433446 -1.4648247 -3.2583873e-06 4.978564e-39
0.94409275 -1.4648684 -0.00028979077 4.978564e-39
0.9554373 -1.4650458 -3.2186508e-06 4.978564e-39
0.96565968 -1.4651074 -3.2186508e-06 4.978564e-39
0.97597605 -1.4651711 -3.2511625e-06 4.978564e-39
0.98524255 -1.4646171 -3.3378601e-06 4.978564e-39
0.99393183 -1.4649979 -3.3053484e-06 4.978564e-39
1.0055418 -1.4646602 -3.4213067e-06 4.978564e-39
1.0161972 -1.4652252 -3.2981236e-06 4.978564e-39
1.0257262 -1.4644375 -3.4400396e-06 4.978564e-39
1.0348042 -1.4650494 -3.2583873e-06 4.978564e-39
1.0457698 -1.4651147 -3.4137206e-06 4.978564e-39
1.0556222 -1.4645432 -3.3378601e-06 4.978564e-39
1.0648286 -1.4654506 -3.4213067e-06 4.978564e-39
1.0748792 -1.4643588 -3.4173329e-06 4.978564e-39
1.0842389 -1.4652728 -3.4570694e-06 4.978564e-39
1.0944575 -1.4641711 -3.4570694e-06 4.978564e-39
1.1039747 -1.4650921 -3.540516e-06 4.978564e-39
1.1146524 -1.4648402 -3.525189e-06 4.978564e-39
1.1244487 -1.4654775 -3.4968059e-06 4.978564e-39
1.1349032 -1.4646533 -3.5933085e-06 4.978564e-39
1.1448669 -1.4652953 -3.4570694e-06 4.978564e-39
1.1555008 -1.4644635 -3.5592489e-06 4.978564e-39
1.1656364 -1.4651103 -3.5762787e-06 4.978564e-39
1.1761526 -1.4650183 -3.5762787e-06 4.978564e-39
1.1846336 -1.4652681 -3.5762787e-06 4.978564e-39
1.1953211 -1.4646286 -3.6160152e-06 4.978564e-39
1.2060955 -1.4650794 -3.695488e-06 4.978564e-39
1.2150973 -1.4645759 -3.695488e-06 4.978564e-39
1.2235371 -1.4655905 -3.695488e-06 4.978564e-39
1.2345668 -1.464942 -3.6160152e-06 4.978564e-39
1.2456877 -1.4654016 -3.695488e-06 4.978564e-39
1.2546583 -1.4639803 -3.6358833e-06 4.978564e-39
1.2636933 -1.4659232 -3.7550926e-06 4.978564e-39
1.2750819 -1.4641342 -3.7749608e-06 4.978564e-39
1.2865663 -1.4657345 -3.7550926e-06 4.978564e-39
1.2958313 -1.4642912 -3.7550926e-06 4.978564e-39
1.3056321 -1.4655091 -3.7431716e-06 4.978564e-39
1.3145645 -1.464815 -3.8146973e-06 4.978564e-39
1.3240341 -1.4650812 -3.8146973e-06 4.978564e-39
1.3335732 -1.4653465 -3.8743019e-06 4.978564e-39
1.3431827 -1.4638752 -3.8345656e-06 4.978564e-39
1.3528637 -1.4658856 -3.9339066e-06 4.978564e-39
1.3644563 -1.4645658 -3.8892031e-06 4.978564e-39
1.3773819 -1.46569 -3.8743019e-06 4.978564e-39
1.3873181 -1.4641951 -3.8743019e-06 4.978564e-39
1.3978317 -1.4654565 -3.9339066e-06 4.978564e-39
1.407416 -1.4647368 -3.8743019e-06 4.978564e-39
1.4150289 -1.4636019 -3.9339066e-06 4.978564e-39
1.4232019 -1.4652531 -3.9339066e-06 4.978564e-39
1.4329697 -1.4645262 -3.9339066e-06 4.978564e-39
1.4438481 -1.4658104 -4.0054319e-06 4.978564e-39
1.4537665 -1.4650798 -3.9935112e-06 4.978564e-39
1.4637573 -1.4643456 -3.9577485e-06 4.978564e-39
1.4748856 -1.4656421 -3.8743019e-06 4.978564e-39
1.4855685 -1.4640919 -3.8743019e-06 4.978564e-39
1.4968752 -1.4653995 -3.8146973e-06 4.978564e-39
1.5071858 -1.4646531 -3.9935112e-06 4.978564e-39
1.515377 -1.4653299 -3.9339066e-06 4.978564e-39
1.5241736 -1.4651883 -4.1246412e-06 4.978564e-39
1.5346886 -1.4644336 -3.9339066e-06 4.978564e-39
1.5456176 -1.4656695 -0.00031361278 4.978564e-39
1.5570861 -1.4650074 -3.9935112e-06 4.978564e-39
1.565575 -1.4638095 -3.9339066e-06 4.978564e-39
1.5746918 -1.4655545 -4.0531158e-06 4.978564e-39
1.5855913 -1.4647874 -4.1127205e-06 4.978564e-39
1.5942523 -1.4654838 -4.1723251e-06 4.978564e-39
1.603555 -1.4653385 -4.1723251e-06 4.978564e-39
1.6146771 -1.4645629 -4.0729842e-06 4.978564e-39
1.6264777 -1.4648573 -4.0531158e-06 4.978564e-39
1.635389 -1.4655641 -4.1723251e-06 4.978564e-39
1.6443611 -1.4643339 -4.1723251e-06 4.978564e-39
1.6564065 -1.4646304 -4.2319298e-06 4.978564e-39
1.6655029 -1.4653436 -4.1723251e-06 4.978564e-39
1.6740501 -1.464968 -4.2915344e-06 4.978564e-39
1.6838728 -1.4648159 -4.2915344e-06 4.978564e-39
1.6931473 -1.4655353 -4.1723251e-06 4.978564e-39
1.7049749 -1.4647382 -4.220009e-06 4.978564e-39
1.7150053 -1.4645836 -4.1723251e-06 4.978564e-39
1.7244767 -1.4653101 -4.2915344e-06 4.978564e-39
1.7340018 -1.4640421 -4.2915344e-06 4.978564e-39
1.7435944 -1.4647714 -4.2319298e-06 4.978564e-39
1.7564759 -1.4650801 -4.4107437e-06 4.978564e-39
1.7662057 -1.4658192 -4.3511391e-06 4.978564e-39
1.7760053 -1.464534 -4.2319298e-06 4.978564e-39
1.7858615 -1.4652764 -4.4107437e-06 4.978564e-39
1.7951248 -1.464885 -4.3392183e-06 4.978564e-39
1.8057734 -1.4647262 -4.4107437e-06 4.978564e-39
1.8165029 -1.4645675 -4.4107437e-06 4.978564e-39
1.8259462 -1.4641689 -4.4107437e-06 4.978564e-39
1.8361361 -1.4649212 -4.4703484e-06 4.978564e-39
1.8463858 -1.4656793 -4.6491623e-06 4.978564e-39
1.8532587 -1.4648007 -4.4107437e-06 4.978564e-39
1.8636295 -1.4655619 -4.4703484e-06 4.978564e-39
1.8740615 -1.4642353 -4.4107437e-06 4.978564e-39
1.8845711 -1.4649996 -4.4703484e-06 4.978564e-39
1.8951433 -1.4657698 -4.529953e-06 4.978564e-39
1.9057944 -1.4644297 -4.6491623e-06 4.978564e-39
1.9165093 -1.4652033 -4.529953e-06 4.978564e-39
1.9236959 -1.4643041 -4.6491623e-06 4.978564e-39
1.9345403 -1.4650804 -4.5895576e-06 4.978564e-39
1.9454504 -1.4637222 -4.6491623e-06 4.978564e-39
1.952768 -1.4649572 -4.6491623e-06 4.978564e-39
1.9638112 -1.4657428 -4.5895576e-06 4.978564e-39
1.9749217 -1.4643745 -4.6491623e-06 4.978564e-39
1.9861177 -1.4651638 -4.5895576e-06 4.978564e-39
1.9973823 -1.4659595 -4.6491623e-06 4.978564e-39
2.0049384 -1.465039 -4.6491623e-06 4.978564e-39
2.0125294 -1.4641144 -4.7683716e-06 4.978564e-39
2.0239868 -1.4649118 -4.7087669e-06 4.978564e-39
2.0355151 -1.4657159 -4.6491623e-06 4.978564e-39
2.0432489 -1.4647841 -4.6491623e-06 4.978564e-39
2.0557027 -1.4646133 -4.6491623e-06 4.978564e-39
2.0666685 -1.4664054 -4.7683716e-06 4.978564e-39
2.0745487 -1.4654665 -4.7683716e-06 4.978564e-39
2.0824664 -1.4645231 -4.8875809e-06 4.978564e-39
2.0952172 -1.4643494 -4.7683716e-06 4.978564e-39
2.1064453 -1.466162 -4.8875809e-06 4.978564e-39
2.1145151 -1.4652112 -5.0067902e-06 4.978564e-39
2.122623 -1.4642559 -4.8875809e-06 4.978564e-39
2.1356816 -1.4640791 -4.8875809e-06 4.978564e-39
2.147182 -1.4659125 -4.8875809e-06 4.978564e-39
2.1554475 -1.4649497 -4.8875809e-06 4.978564e-39
2.163753 -1.4639821 -4.8875809e-06 4.978564e-39
0.89611244 -1.452515 -3.2186508e-06 4.978564e-39
0.9038744 -1.454419 -3.1471252e-06 4.978564e-39
0.91424024 -1.4549778 -3.2619996e-06 4.978564e-39
0.92408687 -1.4549928 -3.2186508e-06 4.978564e-39
0.93402237 -1.4550095 -3.283674e-06 4.978564e-39
0.94502485 -1.4546307 -3.2186508e-06 4.978564e-39
0.95511943 -1.4551351 -3.2186508e-06 4.978564e-39
0.96533865 -1.4551526 -3.2186508e-06 4.978564e-39
0.97665679 -1.4547693 -3.2663345e-06 4.978564e-39
0.98524255 -1.4556074 -3.3378601e-06 4.978564e-39
0.99462348 -1.454513 -3.2901764e-06 4.978564e-39
1.0051761 -1.4550281 -3.4173329e-06 4.978564e-39
1.0158614 -1.4550456 -3.3053484e-06 4.978564e-39
1.0254604 -1.4544393 -3.4570694e-06 4.978564e-39
1.0344292 -1.4552951 -3.2544135e-06 4.978564e-39
1.0464935 -1.4543898 -3.4213067e-06 4.978564e-39
1.0556222 -1.4552523 -3.3378601e-06 4.978564e-39
1.0652132 -1.4551234 -3.4213067e-06 4.978564e-39
1.0748792 -1.454991 -3.4570694e-06 4.978564e-39
1.0846298 -1.4548597 -3.4570694e-06 4.978564e-39
1.0944575 -1.4547249 -3.4570694e-06 4.978564e-39
1.1043726 -1.4551189 -3.5365422e-06 4.978564e-39
1.1143656 -1.4544548 -3.516674e-06 4.978564e-39
1.1240439 -1.4553441 -3.4928321e-06 4.978564e-39
1.1346116 -1.4541801 -3.5762787e-06 4.978564e-39
1.1448668 -1.4556479 -3.4570694e-06 4.978564e-39
1.1552042 -1.4539003 -3.5762787e-06 4.978564e-39
1.1656365 -1.45538 -3.5762787e-06 4.978564e-39
1.1764544 -1.4544966 -3.5762787e-06 4.978564e-39
1.1846335 -1.455462 -3.5762787e-06 4.978564e-39
1.1953208 -1.4547797 -3.6160152e-06 4.978564e-39
1.2060955 -1.4551877 -3.695488e-06 4.978564e-39
1.2147858 -1.4537531 -3.695488e-06 4.978564e-39
1.2235371 -1.455629 -3.695488e-06 4.978564e-39
1.2345667 -1.4549365 -3.6160152e-06 4.978564e-39
1.2462064 -1.4552755 -0.00057554326 4.978564e-39
1.2546583 -1.4538946 -3.6358833e-06 4.978564e-39
1.2636935 -1.4558011 -3.7550926e-06 4.978564e-39
1.2745097 -1.4544833 -3.7699938e-06 4.978564e-39
1.2865663 -1.4555211 -3.7550926e-06 4.978564e-39
1.2958313 -1.4540409 -3.7550926e-06 4.978564e-39
1.3051639 -1.4559792 -3.7550926e-06 4.978564e-39
1.3145643 -1.4544898 -3.8146973e-06 4.978564e-39
1.3245093 -1.4556792 -3.8146973e-06 4.978564e-39
1.3335732 -1.4549454 -3.8743019e-06 4.978564e-39
1.3427005 -1.4542081 -3.8623812e-06 4.978564e-39
1.3528634 -1.4554077 -3.9339066e-06 4.978564e-39
1.3650703 -1.4552631 -3.9041042e-06 4.978564e-39
1.3773819 -1.4551139 -3.8743019e-06 4.978564e-39
1.3868195 -1.4543648 -3.8623812e-06 4.978564e-39
1.3973292 -1.4555854 -3.9339066e-06 4.978564e-39
1.407416 -1.454041 -3.9140382e-06 4.978564e-39
1.4150289 -1.4546633 -3.9339066e-06 4.978564e-39
1.4226899 -1.4552883 -3.9339066e-06 4.978564e-39
1.4324538 -1.454527 -3.9100646e-06 4.978564e-39
1.4433283 -1.4557691 -3.9935112e-06 4.978564e-39
1.4537665 -1.4541988 -3.9935112e-06 4.978564e-39
1.4648132 -1.455451 -3.9100646e-06 4.978564e-39
1.4748856 -1.4546766 -3.8743019e-06 4.978564e-39
1.4855685 -1.4549184 -3.8743019e-06 4.978564e-39
1.4963349 -1.455162 -3.8146973e-06 4.978564e-39
1.5066411 -1.4543797 -3.9815905e-06 4.978564e-39
1.515377 -1.4560572 -3.9339066e-06 4.978564e-39
1.5236225 -1.4548498 -4.1127205e-06 4.978564e-39
1.5346887 -1.4550965 -3.9339066e-06 4.978564e-39
1.5458428 -1.4553453 -4.0133796e-06 4.978564e-39
1.5565219 -1.4545492 -4.0054319e-06 4.978564e-39
1.565575 -1.4543698 -3.9339066e-06 4.978564e-39
1.5741206 -1.4550291 -4.0531158e-06 4.978564e-39
1.5855913 -1.4552811 -4.1127205e-06 4.978564e-39
1.5942522 -1.4559487 -4.1723251e-06 4.978564e-39
1.602972 -1.4547065 -4.1723251e-06 4.978564e-39
1.6146771 -1.4549598 -4.1127205e-06 4.978564e-39
1.6264778 -1.455215 -4.0531158e-06 4.978564e-39
1.635389 -1.4539576 -4.1723251e-06 4.978564e-39
1.6443613 -1.4546318 -4.1723251e-06 4.978564e-39
1.6564065 -1.4548883 -4.2319298e-06 4.978564e-39
1.6655029 -1.4555713 -4.1723251e-06 4.978564e-39
1.6752746 -1.4553894 -4.2915344e-06 4.978564e-39
1.6838728 -1.4549823 -4.2915344e-06 4.978564e-39
1.6925274 -1.454574 -4.220009e-06 4.978564e-39
1.7062254 -1.4550589 -4.2438505e-06 4.978564e-39
1.7150053 -1.4546466 -4.1723251e-06 4.978564e-39
1.7244768 -1.4553416 -4.2915344e-06 4.978564e-39
1.7340018 -1.4540417 -4.2915344e-06 4.978564e-39
1.7435945 -1.4547392 -4.2319298e-06 4.978564e-39
1.7564758 -1.4550052 -4.4107437e-06 4.978564e-39
1.7662058 -1.4557118 -4.4107437e-06 4.978564e-39
1.7753502 -1.4552941 -4.2438505e-06 4.978564e-39
1.7858615 -1.4551034 -4.4107437e-06 4.978564e-39
1.7964523 -1.4549124 -4.3630598e-06 4.978564e-39
1.8057734 -1.4544872 -4.4107437e-06 4.978564e-39
1.8158305 -1.4552027 -4.4107437e-06 4.978564e-39
1.8244985 -1.4558531 -0.0015641256 4.978564e-39
1.8354547 -1.4554989 -4.4822691e-06 4.978564e-39
1.8463858 -1.4553051 -4.6491623e-06 4.978564e-39
1.853259 -1.4544036 -4.4107437e-06 4.978564e-39
1.8636295 -1.45513 -4.4703484e-06 4.978564e-39
1.8740615 -1.4558622 -4.4107437e-06 4.978564e-39
1.8845711 -1.4544981 -4.4703484e-06 4.978564e-39
1.8951432 -1.4552332 -4.529953e-06 4.978564e-39
1.9050821 -1.4547964 -4.6491623e-06 4.978564e-39
1.9165094 -1.4545956 -4.529953e-06 4.978564e-39
1.9236958 -1.4536724 -4.6491623e-06 4.978564e-39
1.933815 -1.4553597 -4.5776369e-06 4.978564e-39
1.9454504 -1.4551592 -4.6491623e-06 4.978564e-39
1.952768 -1.4542288 -4.6491623e-06 4.978564e-39
1.963811 -1.4549776 -4.5895576e-06 4.978564e-39
1.9749217 -1.4557328 -4.6491623e-06 4.978564e-39
1.9861176 -1.4543244 -4.5895576e-06 4.978564e-39
1.9973823 -1.4550825 -4.6491623e-06 4.978564e-39
2.0049384 -1.4563174 -4.6491623e-06 4.978564e-39
2.0125294 -1.4553726 -4.7683716e-06 4.978564e-39
2.0239868 -1.4539464 -4.7087669e-06 4.978564e-39
2.0355155 -1.4547123 -4.7683716e-06 4.978564e-39
2.0432489 -1.4559605 -4.6491623e-06 4.978564e-39
2.0544255 -1.4545193 -0.00093383546 4.978564e-39
2.0666685 -1.4552979 -4.7683716e-06 4.978564e-39
2.0745487 -1.4565594 -4.7683716e-06 4.978564e-39
2.0824664 -1.455595 -4.8875809e-06 4.978564e-39
2.094418 -1.4541392 -4.7683716e-06 4.978564e-39
2.1064453 -1.4549221 -4.8875809e-06 4.978564e-39
2.1145151 -1.4561977 -5.0067902e-06 4.978564e-39
2.122623 -1.4552209 -4.8875809e-06 4.978564e-39
2.1348629 -1.4537461 -4.8875809e-06 4.978564e-39
2.147182 -1.456812 -4.8875809e-06 4.978564e-39
2.1554475 -1.4558272 -4.8875809e-06 4.978564e-39
2.163753 -1.4548376 -4.8875809e-06 4.978564e-39
2.1720991 -1.4538431 -4.8875809e-06 4.978564e-39
2.1804857 -1.4528439 -4.8875809e-06 4.978564e-39
2.3023405 -1.4573517 -5.1259995e-06 4.978564e-39
2.4428236 -1.4537205 -5.2452087e-06 4.978564e-39
0.87749398 -1.4407984 -3.0994415e-06 4.978564e-39
0.88449985 -1.443519 -3.2186508e-06 4.978564e-39
0.8936069 -1.4452205 -3.175302e-06 4.978564e-39
0.9046312 -1.4449477 -0.00053065649 4.978564e-39
0.91359729 -1.4447358 -3.2544135e-06 4.978564e-39
0.92377764 -1.4452246 -3.2186508e-06 4.978564e-39
0.93467778 -1.4447989 -3.3020974e-06 4.978564e-39
0.944332 -1.4447328 -3.2305718e-06 4.978564e-39
0.9548015 -1.4452287 -3.2186508e-06 4.978564e-39
0.96601295 -1.4447973 -3.2186508e-06 4.978564e-39
0.97630024 -1.4452611 -3.2583873e-06 4.978564e-39
0.98524261 -1.4450961 -3.3825636e-06 4.978564e-39
0.99426121 -1.4449288 -3.2981236e-06 4.978564e-39
1.0048109 -1.4454007 -3.4213067e-06 4.978564e-39
1.0165665 -1.4444559 -3.2901764e-06 4.978564e-39
1.0254604 -1.4452688 -3.4570694e-06 4.978564e-39
1.0348037 -1.4451007 -3.2901764e-06 4.978564e-39
1.0461144 -1.444586 -3.4173329e-06 4.978564e-39
1.0553493 -1.4451264 -3.3378601e-06 4.978564e-39
1.065599 -1.4447916 -3.4093857e-06 4.978564e-39
1.0748792 -1.445623 -3.4570694e-06 4.978564e-39
1.0850222 -1.4444418 -3.4570694e-06 4.978564e-39
1.0944575 -1.4452791 -3.4570694e-06 4.978564e-39
1.1043723 -1.4451061 -3.528595e-06 4.978564e-39
1.1143656 -1.4449292 -3.516674e-06 4.978564e-39
1.1244487 -1.445285 -3.4968059e-06 4.978564e-39
1.1346116 -1.4445735 -3.5762787e-06 4.978564e-39
1.1444552 -1.4454298 -3.4570694e-06 4.978564e-39
1.1552042 -1.4442116 -3.5762787e-06 4.978564e-39
1.1656364 -1.4456495 -3.5762787e-06 4.978564e-39
1.1761526 -1.4438435 -3.5762787e-06 4.978564e-39
1.1846336 -1.4456557 -3.5762787e-06 4.978564e-39
1.195321 -1.4449308 -3.6160152e-06 4.978564e-39
1.2060955 -1.4452958 -3.695488e-06 4.978564e-39
1.2147858 -1.4438266 -3.695488e-06 4.978564e-39
1.2235371 -1.4456674 -3.695488e-06 4.978564e-39
1.2345667 -1.4449309 -3.695488e-06 4.978564e-39
1.2456877 -1.4453017 -3.695488e-06 4.978564e-39
1.2546583 -1.4438089 -3.6358833e-06 4.978564e-39
1.2636933 -1.4456792 -3.7550926e-06 4.978564e-39
1.2750818 -1.4449309 -3.7749608e-06 4.978564e-39
1.2865663 -1.4453079 -3.7550926e-06 4.978564e-39
1.2953664 -1.4445508 -3.7431716e-06 4.978564e-39
