# .PCD v0.7 - Point Cloud Data file format
VERSION 0.7
FIELDS x y z rgb
SIZE 4 4 4 4
TYPE F F F F
COUNT 1 1 1 1
WIDTH 1004
HEIGHT 1
VIEWPOINT 0 0 0 1 0 0 0
POINTS 1004
DATA ascii
1.8361382 2.1045203 -6.1392784e-06 4.978564e-39
1.8463876 2.1051683 -5.9604645e-06 4.978564e-39
1.853261 2.1056032 -6.0796738e-06 4.978564e-39
1.8643249 2.1050496 -6.0796738e-06 4.978564e-39
1.8740638 2.1048253 -6.1988831e-06 4.978564e-39
1.8845733 2.1054828 -6.1392784e-06 4.978564e-39
1.8951454 2.1040373 -6.0796738e-06 4.978564e-39
1.9057965 2.1046968 -6.1988831e-06 4.978564e-39
1.9165115 2.10536 -6.0796738e-06 4.978564e-39
1.9236978 2.1058049 -6.3180923e-06 4.978564e-39
1.9352674 2.1052394 -6.246567e-06 4.978564e-39
1.9454526 2.105011 -6.3180923e-06 4.978564e-39
1.9527701 2.1054592 -6.3180923e-06 4.978564e-39
1.9638133 2.1039822 -6.3180923e-06 4.978564e-39
1.974924 2.1046553 -6.1988831e-06 4.978564e-39
1.9861196 2.1053336 -6.2584877e-06 4.978564e-39
1.9973844 2.1060159 -6.3180923e-06 4.978564e-39
2.0049405 2.1064737 -6.3180923e-06 4.978564e-39
2.0125315 2.104748 -6.3180923e-06 4.978564e-39
2.0232227 2.1045103 -6.3180923e-06 4.978564e-39
2.0355177 2.1039245 -6.3180923e-06 4.978564e-39
2.0432513 2.1043825 -6.3180923e-06 4.978564e-39
2.0549245 2.1050739 -6.2584877e-06 4.978564e-39
2.0666707 2.1057701 -6.3180923e-06 4.978564e-39
2.0745513 2.1062369 -6.5565109e-06 4.978564e-39
2.0824687 2.1044741 -6.5565109e-06 4.978564e-39
2.0944204 2.1051743 -6.5565109e-06 4.978564e-39
2.1064477 2.1036308 -6.4373016e-06 4.978564e-39
2.114517 2.1040978 -6.4373016e-06 4.978564e-39
2.1226254 2.1045678 -6.4373016e-06 4.978564e-39
2.1348653 2.1052766 -6.4969063e-06 4.978564e-39
2.1471841 2.1059899 -6.3180923e-06 4.978564e-39
2.1554499 2.1064687 -6.4373016e-06 4.978564e-39
2.1637554 2.1046636 -6.4373016e-06 4.978564e-39
2.1721013 2.1051412 -6.5565109e-06 4.978564e-39
2.1973846 2.1065888 -6.5565109e-06 4.978564e-39
1.8057754 2.1128392 -6.0796738e-06 4.978564e-39
1.8158326 2.1155634 -6.0796738e-06 4.978564e-39
1.8259484 2.1141822 -6.0796738e-06 4.978564e-39
1.8361384 2.1148605 -6.1392784e-06 4.978564e-39
1.8463877 2.1155427 -6.0399375e-06 4.978564e-39
1.853261 2.1139209 -6.0796738e-06 4.978564e-39
1.8636316 2.1146042 -6.0796738e-06 4.978564e-39
1.8740637 2.1152918 -6.1988831e-06 4.978564e-39
1.8845732 2.1159844 -6.1392784e-06 4.978564e-39
1.8951454 2.1145737 -6.0796738e-06 4.978564e-39
1.9057966 2.1152689 -6.2386193e-06 4.978564e-39
1.9165115 2.1138458 -6.0796738e-06 4.978564e-39
1.9236978 2.1143103 -6.3180923e-06 4.978564e-39
1.9345424 2.1150103 -6.2584877e-06 4.978564e-39
1.9454526 2.115715 -6.3180923e-06 4.978564e-39
1.9527701 2.1161876 -6.3180923e-06 4.978564e-39
1.9638133 2.1147475 -6.3180923e-06 4.978564e-39
1.9749241 2.1154575 -6.2783561e-06 4.978564e-39
1.9861197 2.1140049 -6.2584877e-06 4.978564e-39
1.9973844 2.1147175 -6.3180923e-06 4.978564e-39
2.0049405 2.1151953 -6.3180923e-06 4.978564e-39
2.0125315 2.1156754 -6.3180923e-06 4.978564e-39
2.0247552 2.1151309 -6.3180923e-06 4.978564e-39
2.0355177 2.1149285 -6.3180923e-06 4.978564e-39
2.0432513 2.1154125 -6.4373016e-06 4.978564e-39
2.0549245 2.1139288 -6.2584877e-06 4.978564e-39
2.0666707 2.114656 -6.3180923e-06 4.978564e-39
2.0745513 2.1151443 -6.5565109e-06 4.978564e-39
2.0824687 2.1156342 -6.5565109e-06 4.978564e-39
2.0944202 2.1163743 -6.5565109e-06 4.978564e-39
2.1064477 2.1148708 -6.4373016e-06 4.978564e-39
2.1145172 2.1153648 -6.5167746e-06 4.978564e-39
2.1226254 2.1136026 -6.4373016e-06 4.978564e-39
2.1348653 2.1143441 -6.4969063e-06 4.978564e-39
2.1471841 2.1150904 -6.3180923e-06 4.978564e-39
2.1554499 2.115591 -6.4373016e-06 4.978564e-39
2.1637554 2.1160941 -6.4373016e-06 4.978564e-39
2.1721013 2.1165996 -6.5565109e-06 4.978564e-39
2.1973846 2.1112058 -6.5565109e-06 4.978564e-39
1.8191947 2.1219597 -6.0796738e-06 4.978564e-39
1.8259485 2.1244884 -6.0796738e-06 4.978564e-39
1.8361382 2.1252007 -6.1392784e-06 4.978564e-39
1.8463879 2.1259172 -6.1988831e-06 4.978564e-39
1.853261 2.1243181 -6.0796738e-06 4.978564e-39
1.8636316 2.125036 -6.0796738e-06 4.978564e-39
1.8740636 2.1257582 -6.1988831e-06 4.978564e-39
1.8845732 2.1243854 -6.1392784e-06 4.978564e-39
1.8951453 2.1251104 -6.0796738e-06 4.978564e-39
1.9057966 2.1258409 -6.2584877e-06 4.978564e-39
1.9165115 2.1244538 -6.0796738e-06 4.978564e-39
1.9230939 2.1254082 -5.345231e-05 4.978564e-39
1.9338173 2.1247745 -6.2704084e-06 4.978564e-39
1.9454526 2.1242783 -6.3180923e-06 4.978564e-39
1.9527701 2.1247702 -6.3180923e-06 4.978564e-39
1.9638133 2.1255126 -6.3180923e-06 4.978564e-39
1.9749241 2.1262598 -6.3180923e-06 4.978564e-39
1.9861197 2.1248443 -6.2584877e-06 4.978564e-39
1.9973844 2.1255944 -6.3180923e-06 4.978564e-39
2.0049405 2.1239171 -6.3180923e-06 4.978564e-39
2.0125315 2.1244173 -6.3180923e-06 4.978564e-39
2.0239892 2.1251721 -6.3180923e-06 4.978564e-39
2.0355177 2.1259322 -6.3180923e-06 4.978564e-39
2.0432513 2.126442 -6.4373016e-06 4.978564e-39
2.0549242 2.1249971 -6.2584877e-06 4.978564e-39
2.0666707 2.1235421 -6.3180923e-06 4.978564e-39
2.0745513 2.1240511 -6.5565109e-06 4.978564e-39
2.0824687 2.1245623 -6.5565109e-06 4.978564e-39
2.0944202 2.1253343 -6.5565109e-06 4.978564e-39
2.1064477 2.1261106 -6.4373016e-06 4.978564e-39
2.1145175 2.1266317 -6.5565109e-06 4.978564e-39
2.1226254 2.1248965 -6.4373016e-06 4.978564e-39
2.1340468 2.1247182 -6.4849855e-06 4.978564e-39
2.1471841 2.1241908 -6.3180923e-06 4.978564e-39
2.1554499 2.1247134 -6.4373016e-06 4.978564e-39
2.1637554 2.1252387 -6.4373016e-06 4.978564e-39
2.1721013 2.1257663 -6.5565109e-06 4.978564e-39
2.2933545 2.1263175 -6.7949295e-06 4.978564e-39
1.8372737 2.1328666 -6.1591468e-06 4.978564e-39
1.8463879 2.1342168 -6.1988831e-06 4.978564e-39
1.853261 2.1347153 -6.0796738e-06 4.978564e-39
1.8636315 2.1354675 -6.0796738e-06 4.978564e-39
1.8740636 2.1362247 -6.1988831e-06 4.978564e-39
1.8845733 2.134887 -6.1392784e-06 4.978564e-39
1.8951453 2.1356471 -6.0796738e-06 4.978564e-39
1.9057966 2.1342983 -6.2584877e-06 4.978564e-39
1.9165114 2.1350615 -6.0796738e-06 4.978564e-39
1.9236978 2.1355734 -6.3180923e-06 4.978564e-39
1.9352674 2.1351161 -6.246567e-06 4.978564e-39
1.9454526 2.1349823 -6.3180923e-06 4.978564e-39
1.9527701 2.1354988 -6.3180923e-06 4.978564e-39
1.9638133 2.1341248 -6.3180923e-06 4.978564e-39
1.9749241 2.1349015 -6.3180923e-06 4.978564e-39
1.9861196 2.1356838 -6.2584877e-06 4.978564e-39
1.9973844 2.1364713 -6.3180923e-06 4.978564e-39
2.0049405 2.134819 -6.3180923e-06 4.978564e-39
2.0125315 2.1353445 -6.3180923e-06 4.978564e-39
2.0239892 2.1339447 -6.3180923e-06 4.978564e-39
2.0355177 2.1347351 -6.3180923e-06 4.978564e-39
2.0432513 2.1352654 -6.4373016e-06 4.978564e-39
2.0549245 2.1360657 -6.2584877e-06 4.978564e-39
2.0666707 2.1346495 -6.3180923e-06 4.978564e-39
2.0745513 2.1351848 -6.5565109e-06 4.978564e-39
2.0824687 2.1334903 -6.5565109e-06 4.978564e-39
2.0944204 2.134294 -6.5565109e-06 4.978564e-39
2.1064477 2.1351025 -6.4373016e-06 4.978564e-39
2.1145175 2.1356452 -6.5565109e-06 4.978564e-39
2.1226254 2.1361902 -6.4373016e-06 4.978564e-39
2.1356838 2.1357064 -6.508827e-06 4.978564e-39
2.1471844 2.1332912 -6.4373016e-06 4.978564e-39
2.1554499 2.1338358 -6.4373016e-06 4.978564e-39
2.1637554 2.1343832 -6.4373016e-06 4.978564e-39
2.1721013 2.1349332 -6.5565109e-06 4.978564e-39
2.1804881 2.1377831 -6.5565109e-06 4.978564e-39
2.2933545 2.1310623 -6.7949295e-06 4.978564e-39
1.8463879 2.1404412 -6.1988831e-06 4.978564e-39
1.853261 2.143033 -6.0796738e-06 4.978564e-39
1.8629382 2.1450112 -6.0796738e-06 4.978564e-39
1.8740636 2.144598 -6.1988831e-06 4.978564e-39
1.8845732 2.1453884 -6.1392784e-06 4.978564e-39
1.8951453 2.1461835 -6.0796738e-06 4.978564e-39
1.9057966 2.1448708 -6.2584877e-06 4.978564e-39
1.9165115 2.1456692 -6.2386193e-06 4.978564e-39
1.9236978 2.1440787 -6.3180923e-06 4.978564e-39
1.9345424 2.1448801 -6.2584877e-06 4.978564e-39
1.9454526 2.1456864 -6.3180923e-06 4.978564e-39
1.9527701 2.1462269 -6.3180923e-06 4.978564e-39
1.9638133 2.1448901 -6.3180923e-06 4.978564e-39
1.9741942 2.1431632 -0.00036616556 4.978564e-39
1.9861197 2.1443555 -6.28829e-06 4.978564e-39
1.9973844 2.1451728 -6.3180923e-06 4.978564e-39
2.0049405 2.145721 -6.3180923e-06 4.978564e-39
2.0125315 2.1462717 -6.3180923e-06 4.978564e-39
2.0239892 2.1449101 -6.3180923e-06 4.978564e-39
2.0355177 2.1435385 -6.3180923e-06 4.978564e-39
2.0432513 2.1440892 -6.4373016e-06 4.978564e-39
2.0549245 2.1449203 -6.377697e-06 4.978564e-39
2.0666707 2.1457572 -6.3180923e-06 4.978564e-39
2.0745513 2.1463184 -6.5565109e-06 4.978564e-39
2.0824687 2.1446505 -6.5565109e-06 4.978564e-39
2.0936208 2.1445403 -6.5565109e-06 4.978564e-39
2.1064477 2.1440945 -6.4373016e-06 4.978564e-39
2.1145175 2.1446586 -6.5565109e-06 4.978564e-39
2.1226256 2.1452255 -6.6757202e-06 4.978564e-39
2.1348653 2.1460805 -6.4969063e-06 4.978564e-39
2.1471844 2.1446667 -6.5565109e-06 4.978564e-39
2.1554499 2.1452389 -6.4373016e-06 4.978564e-39
2.1637554 2.1435275 -6.4373016e-06 4.978564e-39
2.1721013 2.1441 -6.5565109e-06 4.978564e-39
1.8670987 2.1524286 -6.0796738e-06 4.978564e-39
1.8740636 2.1550643 -6.1988831e-06 4.978564e-39
1.8838705 2.1549935 -6.1273577e-06 4.978564e-39
1.8951453 2.154613 -6.0796738e-06 4.978564e-39
1.9057966 2.1554427 -6.2584877e-06 4.978564e-39
1.9165117 2.1562772 -6.3180923e-06 4.978564e-39
1.9252685 2.1557214 -0.00031140025 4.978564e-39
1.9338173 2.1546376 -6.2704084e-06 4.978564e-39
1.9454526 2.1542497 -6.3180923e-06 4.978564e-39
1.9527701 2.15481 -6.3180923e-06 4.978564e-39
1.9638133 2.1556549 -6.3180923e-06 4.978564e-39
1.9749241 2.1543455 -6.3180923e-06 4.978564e-39
1.9861199 2.155195 -6.3180923e-06 4.978564e-39
1.9973844 2.1538744 -6.3180923e-06 4.978564e-39
2.0049405 2.1544428 -6.3180923e-06 4.978564e-39
2.0125315 2.1550136 -6.3180923e-06 4.978564e-39
2.0239892 2.1558754 -6.3180923e-06 4.978564e-39
2.0355177 2.1545422 -6.3180923e-06 4.978564e-39
2.0432513 2.1551187 -6.4373016e-06 4.978564e-39
2.0549242 2.1537752 -6.377697e-06 4.978564e-39
2.0666707 2.1546431 -6.3180923e-06 4.978564e-39
2.0745513 2.1552258 -6.5565109e-06 4.978564e-39
2.0824687 2.1558104 -6.5565109e-06 4.978564e-39
2.0952196 2.1554074 -6.5565109e-06 4.978564e-39
2.1064477 2.1553342 -6.4373016e-06 4.978564e-39
2.1145175 2.153672 -6.5565109e-06 4.978564e-39
2.1226256 2.1542604 -6.6757202e-06 4.978564e-39
2.1348653 2.1551483 -6.4969063e-06 4.978564e-39
2.1471844 2.1560421 -6.5565109e-06 4.978564e-39
2.1554499 2.156642 -6.4373016e-06 4.978564e-39
2.1637554 2.1549585 -6.4373016e-06 4.978564e-39
2.1721013 2.1532667 -6.5565109e-06 4.978564e-39
1.88633 2.1644335 -6.1690807e-06 4.978564e-39
1.8951453 2.1651495 -6.0796738e-06 4.978564e-39
1.9050844 2.1651101 -6.246567e-06 4.978564e-39
1.9165117 2.1647635 -6.3180923e-06 4.978564e-39
1.9236978 2.1653423 -6.3180923e-06 4.978564e-39
1.9352674 2.1649926 -6.246567e-06 4.978564e-39
1.9454526 2.1649537 -6.3180923e-06 4.978564e-39
1.9527701 2.1655381 -6.3180923e-06 4.978564e-39
1.9638133 2.1642673 -6.3180923e-06 4.978564e-39
1.9749241 2.1651478 -6.3180923e-06 4.978564e-39
1.9861199 2.1660342 -6.3180923e-06 4.978564e-39
1.9973844 2.1647513 -6.3180923e-06 4.978564e-39
2.0049405 2.165345 -6.3180923e-06 4.978564e-39
2.0125315 2.1637554 -6.3180923e-06 4.978564e-39
2.0239892 2.1646481 -6.3180923e-06 4.978564e-39
2.0355177 2.1655459 -6.3180923e-06 4.978564e-39
2.0432513 2.1661482 -6.4373016e-06 4.978564e-39
2.0549247 2.1648436 -6.377697e-06 4.978564e-39
2.0666707 2.1635289 -6.3180923e-06 4.978564e-39
2.0745513 2.1641326 -6.5565109e-06 4.978564e-39
2.0824687 2.1647387 -6.5565109e-06 4.978564e-39
2.0944204 2.1656537 -6.5565109e-06 4.978564e-39
2.1064477 2.1665742 -6.4373016e-06 4.978564e-39
2.1145175 2.1649387 -6.5565109e-06 4.978564e-39
2.1226256 2.1632953 -6.6757202e-06 4.978564e-39
2.1348653 2.164216 -6.4969063e-06 4.978564e-39
2.1471844 2.1651425 -6.5565109e-06 4.978564e-39
2.1554499 2.1657643 -6.4373016e-06 4.978564e-39
2.1637557 2.166389 -6.5565109e-06 4.978564e-39
2.1721013 2.1647251 -6.5565109e-06 4.978564e-39
1.8951453 2.173579 -6.0796738e-06 4.978564e-39
1.9065088 2.1753769 -6.2704084e-06 4.978564e-39
1.9165117 2.1753712 -6.3180923e-06 4.978564e-39
1.9236978 2.1738477 -6.3180923e-06 4.978564e-39
1.9345423 2.1747499 -6.2584877e-06 4.978564e-39
1.9454526 2.1756577 -6.3180923e-06 4.978564e-39
1.9527701 2.1762667 -6.3180923e-06 4.978564e-39
1.9638133 2.1750324 -6.3180923e-06 4.978564e-39
1.9749241 2.1737895 -6.3180923e-06 4.978564e-39
1.9861199 2.174706 -6.377697e-06 4.978564e-39
1.9973844 2.1756282 -6.3180923e-06 4.978564e-39
2.0049405 2.1762469 -6.3180923e-06 4.978564e-39
2.0125315 2.1746829 -6.3180923e-06 4.978564e-39
2.0232232 2.1746728 -6.3180923e-06 4.978564e-39
2.0355177 2.1743488 -6.3180923e-06 4.978564e-39
2.0432513 2.1749721 -6.4373016e-06 4.978564e-39
2.0549245 2.1759121 -6.4373016e-06 4.978564e-39
2.0666707 2.1746366 -6.3180923e-06 4.978564e-39
2.0745513 2.1752663 -6.5565109e-06 4.978564e-39
2.0824687 2.1736667 -6.5565109e-06 4.978564e-39
2.0944202 2.1746135 -6.5565109e-06 4.978564e-39
2.1064477 2.1755662 -6.4373016e-06 4.978564e-39
2.1145175 2.1762056 -6.5565109e-06 4.978564e-39
2.1222873 2.173944 -0.00050725508 4.978564e-39
2.134047 2.1745782 -6.532669e-06 4.978564e-39
2.1471844 2.174243 -6.5565109e-06 4.978564e-39
2.1554499 2.1748867 -6.4373016e-06 4.978564e-39
2.1637557 2.1755338 -6.5565109e-06 4.978564e-39
2.1721017 2.1761837 -6.5565109e-06 4.978564e-39
1.9093577 2.1832383 -6.3180923e-06 4.978564e-39
1.9165117 2.1859789 -6.3180923e-06 4.978564e-39
1.9236978 2.1844795 -6.3180923e-06 4.978564e-39
1.9338173 2.1845005 -6.2704084e-06 4.978564e-39
1.9454526 2.184221 -6.3180923e-06 4.978564e-39
1.9527701 2.1848493 -6.3180923e-06 4.978564e-39
1.9638133 2.1857977 -6.3180923e-06 4.978564e-39
1.9749241 2.1845915 -6.3180923e-06 4.978564e-39
1.9853714 2.1846135 -6.4373016e-06 4.978564e-39
1.9973844 2.1843297 -6.3180923e-06 4.978564e-39
2.0049405 2.1849685 -6.3180923e-06 4.978564e-39
2.0125315 2.1856103 -6.3180923e-06 4.978564e-39
2.024755 2.1853261 -6.3180923e-06 4.978564e-39
2.0355177 2.185353 -6.3180923e-06 4.978564e-39
2.0432513 2.1837955 -6.4373016e-06 4.978564e-39
2.0549245 2.1847668 -6.4969063e-06 4.978564e-39
2.0666707 2.1857443 -6.3180923e-06 4.978564e-39
2.0745513 2.1863999 -6.5565109e-06 4.978564e-39
2.0824687 2.1848269 -6.5565109e-06 4.978564e-39
2.093621 2.1848502 -6.5565109e-06 4.978564e-39
2.1064477 2.1845579 -6.4373016e-06 4.978564e-39
2.1145175 2.1852188 -6.5565109e-06 4.978564e-39
2.1226256 2.185883 -6.6757202e-06 4.978564e-39
2.1356843 2.18559 -6.5565109e-06 4.978564e-39
2.1471844 2.1833434 -6.5565109e-06 4.978564e-39
2.1554499 2.1840091 -6.4373016e-06 4.978564e-39
2.1637557 2.1846781 -6.5565109e-06 4.978564e-39
2.1721017 2.1853504 -6.5565109e-06 4.978564e-39
1.9236978 2.1929843 -6.3180923e-06 4.978564e-39
1.9352674 2.1948688 -6.246567e-06 4.978564e-39
1.9454526 2.1949251 -6.3180923e-06 4.978564e-39
1.9527701 2.1955776 -6.3180923e-06 4.978564e-39
1.9638133 2.1944098 -6.3180923e-06 4.978564e-39
1.9749241 2.1953936 -6.3180923e-06 4.978564e-39
1.9868686 2.1951489 -6.4373016e-06 4.978564e-39
1.9973844 2.1952066 -6.3180923e-06 4.978564e-39
2.0049405 2.1936903 -6.3180923e-06 4.978564e-39
2.0125315 2.1943521 -6.3180923e-06 4.978564e-39
2.0239892 2.1953511 -6.3180923e-06 4.978564e-39
2.0355177 2.1963568 -6.3180923e-06 4.978564e-39
2.0432513 2.1948252 -6.4373016e-06 4.978564e-39
2.0541439 2.1948812 -6.4849855e-06 4.978564e-39
2.0666707 2.1946301 -6.3180923e-06 4.978564e-39
2.0745513 2.1953073 -6.5565109e-06 4.978564e-39
2.0824687 2.1959867 -6.5565109e-06 4.978564e-39
2.0952199 2.1957364 -6.5565109e-06 4.978564e-39
2.1064477 2.1935501 -6.4373016e-06 4.978564e-39
2.1145175 2.1942322 -6.5565109e-06 4.978564e-39
2.1226256 2.1949179 -6.6757202e-06 4.978564e-39
2.1348655 2.1959524 -6.5565109e-06 4.978564e-39
2.1471844 2.1947186 -6.5565109e-06 4.978564e-39
2.1554499 2.1954122 -6.4373016e-06 4.978564e-39
2.1637557 2.1938229 -6.5565109e-06 4.978564e-39
2.1721017 2.1945171 -6.5565109e-06 4.978564e-39
2.2058952 2.1927009 -6.6757202e-06 4.978564e-39
2.3572414 2.1978478 -6.7949295e-06 4.978564e-39
1.938168 2.2028191 -6.1988831e-06 4.978564e-39
1.9454526 2.2056291 -6.3180923e-06 4.978564e-39
1.9527701 2.2063062 -6.3180923e-06 4.978564e-39
1.9638133 2.2051752 -6.3180923e-06 4.978564e-39
1.9749241 2.2040353 -6.3180923e-06 4.978564e-39
1.9861199 2.2050562 -6.4373016e-06 4.978564e-39
1.9973844 2.2060835 -6.3180923e-06 4.978564e-39
2.0049405 2.2045925 -6.3180923e-06 4.978564e-39
2.0125315 2.2052794 -6.3180923e-06 4.978564e-39
2.023989 2.2041235 -6.3180923e-06 4.978564e-39
2.0355177 2.2051597 -6.3180923e-06 4.978564e-39
2.0432513 2.2058549 -6.4373016e-06 4.978564e-39
2.0557048 2.2056441 -6.508827e-06 4.978564e-39
2.0666707 2.203516 -6.3180923e-06 4.978564e-39
2.0745513 2.2042141 -6.5565109e-06 4.978564e-39
2.0824687 2.204915 -6.5565109e-06 4.978564e-39
2.0944204 2.2059731 -6.5565109e-06 4.978564e-39
2.1064477 2.2047899 -6.4373016e-06 4.978564e-39
2.1145175 2.2032456 -6.5565109e-06 4.978564e-39
2.1226256 2.2039528 -6.6757202e-06 4.978564e-39
2.1348655 2.2050202 -6.5565109e-06 4.978564e-39
2.1471844 2.2060943 -6.5565109e-06 4.978564e-39
2.1554499 2.2068152 -6.4373016e-06 4.978564e-39
2.1637557 2.2052534 -6.5565109e-06 4.978564e-39
2.1721017 2.2036839 -6.5565109e-06 4.978564e-39
2.3995595 2.2088952 -0.0011565757 4.978564e-39
1.9527701 2.2127433 -6.3180923e-06 4.978564e-39
1.9638133 2.21594 -6.3180923e-06 4.978564e-39
1.9749241 2.2148373 -6.3180923e-06 4.978564e-39
1.9853714 2.2149568 -6.4373016e-06 4.978564e-39
1.9973844 2.2147851 -6.3180923e-06 4.978564e-39
2.0049405 2.2154942 -6.3180923e-06 4.978564e-39
2.0120676 2.2157857 -0.00079874723 4.978564e-39
2.023989 2.2150891 -6.3180923e-06 4.978564e-39
2.0355177 2.2139628 -6.3180923e-06 4.978564e-39
2.0432513 2.2146783 -6.4373016e-06 4.978564e-39
2.0549242 2.2157586 -6.4969063e-06 4.978564e-39
2.0666709 2.2146239 -6.4373016e-06 4.978564e-39
2.0745513 2.2153478 -6.5565109e-06 4.978564e-39
2.0824687 2.2138429 -6.5565109e-06 4.978564e-39
2.0944204 2.2149332 -6.5565109e-06 4.978564e-39
2.1064477 2.2160296 -6.4373016e-06 4.978564e-39
2.1145175 2.2145126 -6.5565109e-06 4.978564e-39
2.1226256 2.2152467 -6.6757202e-06 4.978564e-39
2.1348658 2.2140877 -6.5565109e-06 4.978564e-39
2.1471844 2.2151947 -6.5565109e-06 4.978564e-39
2.1554499 2.2159376 -6.4373016e-06 4.978564e-39
2.1637557 2.2166839 -6.5565109e-06 4.978564e-39
2.1721017 2.2151423 -6.5565109e-06 4.978564e-39
2.1804881 2.2158904 -6.5565109e-06 4.978564e-39
2.2144473 2.2142797 -6.5565109e-06 4.978564e-39
2.3047976 2.2165089 -0.0003445922 4.978564e-39
2.3113773 2.2156439 -6.7949295e-06 4.978564e-39
2.4042954 2.2138381 -6.9737434e-06 4.978564e-39
1.9675056 2.2227581 -6.3180923e-06 4.978564e-39
1.9749241 2.2256398 -6.3180923e-06 4.978564e-39
1.9868686 2.2255063 -6.4373016e-06 4.978564e-39
1.9973844 2.2234864 -6.3180923e-06 4.978564e-39
2.0049405 2.224216 -6.3180923e-06 4.978564e-39
2.0125315 2.2249484 -6.3180923e-06 4.978564e-39
2.0239892 2.2260544 -6.3180923e-06 4.978564e-39
2.0355177 2.2249668 -6.3180923e-06 4.978564e-39
2.0432513 2.2235022 -6.4373016e-06 4.978564e-39
2.0549242 2.2246134 -6.4969063e-06 4.978564e-39
2.0666709 2.2257314 -6.4373016e-06 4.978564e-39
2.0745513 2.2264814 -6.5565109e-06 4.978564e-39
2.0824687 2.2250032 -6.5565109e-06 4.978564e-39
2.0944202 2.2238929 -6.5565109e-06 4.978564e-39
2.1064477 2.2250218 -6.4373016e-06 4.978564e-39
2.1145175 2.2257791 -6.5565109e-06 4.978564e-39
2.1226256 2.2265406 -6.6757202e-06 4.978564e-39
2.134047 2.2244382 -6.5565109e-06 4.978564e-39
2.1471844 2.2242951 -6.5565109e-06 4.978564e-39
2.1554499 2.22506 -6.4373016e-06 4.978564e-39
2.1637557 2.2258286 -6.5565109e-06 4.978564e-39
2.1832974 2.2238061 -6.5962472e-06 4.978564e-39
2.1973846 2.2243233 -6.5565109e-06 4.978564e-39
2.3826995 2.2205446 -0.0016432664 4.978564e-39
1.9873676 2.2348101 -6.4373016e-06 4.978564e-39
1.9973844 2.2343636 -6.3180923e-06 4.978564e-39
2.0049405 2.2351182 -6.3180923e-06 4.978564e-39
2.0125315 2.2336903 -6.3180923e-06 4.978564e-39
2.0239892 2.2348268 -6.3180923e-06 4.978564e-39
2.0355177 2.2359705 -6.3180923e-06 4.978564e-39
2.0432513 2.2345314 -6.4373016e-06 4.978564e-39
2.0541437 2.2347183 -6.4849855e-06 4.978564e-39
2.0666709 2.2346172 -6.4373016e-06 4.978564e-39
2.0745513 2.2353885 -6.5565109e-06 4.978564e-39
2.0848205 2.234463 -0.0012291794 4.978564e-39
2.0944202 2.2350929 -6.5565109e-06 4.978564e-39
2.1064477 2.2340136 -6.4373016e-06 4.978564e-39
2.1145175 2.2347927 -6.5565109e-06 4.978564e-39
2.1226256 2.2355754 -6.6757202e-06 4.978564e-39
2.1356845 2.2354741 -6.5565109e-06 4.978564e-39
2.1471844 2.2333956 -6.5565109e-06 4.978564e-39
2.1554499 2.2341824 -6.4373016e-06 4.978564e-39
2.1637557 2.234973 -6.5565109e-06 4.978564e-39
2.188916 2.2327623 -6.6757202e-06 4.978564e-39
2.1973846 2.2335572 -6.5565109e-06 4.978564e-39
2.2403586 2.2375908 -6.6757202e-06 4.978564e-39
2.4377275 2.2301173 -0.00014863317 4.978564e-39
1.9973844 2.2430651 -6.3180923e-06 4.978564e-39
2.0049405 2.2460198 -6.3180923e-06 4.978564e-39
2.0125315 2.2446177 -6.3180923e-06 4.978564e-39
2.0232227 2.2448354 -6.3180923e-06 4.978564e-39
2.0355177 2.2447734 -6.3180923e-06 4.978564e-39
2.0432513 2.2455611 -6.4373016e-06 4.978564e-39
2.0557053 2.2454998 -6.508827e-06 4.978564e-39
2.0666709 2.2435036 -6.4373016e-06 4.978564e-39
2.0745513 2.2442956 -6.5565109e-06 4.978564e-39
2.0824687 2.2450914 -6.5565109e-06 4.978564e-39
2.0944204 2.2462928 -6.5565109e-06 4.978564e-39
2.1064477 2.2452536 -6.4373016e-06 4.978564e-39
2.1145175 2.2438059 -6.5565109e-06 4.978564e-39
2.1226256 2.2446103 -6.6757202e-06 4.978564e-39
2.1348658 2.2458243 -6.5565109e-06 4.978564e-39
2.1471844 2.244771 -6.5565109e-06 4.978564e-39
2.1554499 2.2433047 -6.4373016e-06 4.978564e-39
2.1637557 2.2441177 -6.5565109e-06 4.978564e-39
2.2403586 2.244602 -6.6757202e-06 4.978564e-39
2.0259047 2.2547662 -6.3180923e-06 4.978564e-39
2.0355177 2.2535768 -6.3180923e-06 4.978564e-39
2.0432513 2.254385 -6.4373016e-06 4.978564e-39
2.0549245 2.255605 -6.4969063e-06 4.978564e-39
2.0666709 2.254611 -6.4373016e-06 4.978564e-39
2.0745513 2.2554293 -6.5565109e-06 4.978564e-39
2.0824687 2.2540193 -6.5565109e-06 4.978564e-39
2.0944204 2.2552524 -6.5565109e-06 4.978564e-39
2.1064477 2.2564936 -6.4373016e-06 4.978564e-39
2.1145175 2.2550728 -6.5565109e-06 4.978564e-39
2.1226256 2.2536454 -6.6757202e-06 4.978564e-39
2.1348658 2.2548919 -6.5565109e-06 4.978564e-39
2.1471844 2.2561464 -6.5565109e-06 4.978564e-39
2.1554499 2.2547076 -6.4373016e-06 4.978564e-39
2.1637557 2.253262 -6.5565109e-06 4.978564e-39
2.2578478 2.2556734 -6.5565109e-06 4.978564e-39
2.2666581 2.2565415 -6.5565109e-06 4.978564e-39
2.0355177 2.2623796 -6.3180923e-06 4.978564e-39
2.0432513 2.2654145 -6.4373016e-06 4.978564e-39
2.0549245 2.2644596 -6.4969063e-06 4.978564e-39
2.0666709 2.2657185 -6.4373016e-06 4.978564e-39
2.0745513 2.2665629 -6.5565109e-06 4.978564e-39
2.0824687 2.2651794 -6.5565109e-06 4.978564e-39
2.0944204 2.2642126 -6.5565109e-06 4.978564e-39
2.1064477 2.2654853 -6.4373016e-06 4.978564e-39
2.1145175 2.2663395 -6.5565109e-06 4.978564e-39
2.1226256 2.2649393 -6.6757202e-06 4.978564e-39
2.1348658 2.2639594 -6.5565109e-06 4.978564e-39
2.1471844 2.2652469 -6.5565109e-06 4.978564e-39
2.1554499 2.2661109 -6.4373016e-06 4.978564e-39
2.1637557 2.2646925 -6.5565109e-06 4.978564e-39
2.257848 2.2603712 -6.7949295e-06 4.978564e-39
2.2666581 2.2636054 -6.5565109e-06 4.978564e-39
2.0549245 2.2733142 -6.4969063e-06 4.978564e-39
2.0666709 2.2746043 -6.4373016e-06 4.978564e-39
2.0745513 2.27547 -6.5565109e-06 4.978564e-39
2.0824687 2.2763395 -6.5565109e-06 4.978564e-39
2.093621 2.2744279 -6.5565109e-06 4.978564e-39
2.1064477 2.2744775 -6.4373016e-06 4.978564e-39
2.1145175 2.275353 -6.5565109e-06 4.978564e-39
2.1226256 2.276233 -6.6757202e-06 4.978564e-39
2.134047 2.274298 -6.5565109e-06 4.978564e-39
2.1463149 2.2731225 -0.00034698242 4.978564e-39
2.1554499 2.2752333 -6.5565109e-06 4.978564e-39
2.1637557 2.2761235 -6.5565109e-06 4.978564e-39
2.2666583 2.2706695 -6.7949295e-06 4.978564e-39
2.3572414 2.2751255 -6.7949295e-06 4.978564e-39
2.0588276 2.2803919 -6.5565109e-06 4.978564e-39
2.0666709 2.2834907 -6.4373016e-06 4.978564e-39
2.0745511 2.2843771 -6.5565109e-06 4.978564e-39
2.0824687 2.2852678 -6.5565109e-06 4.978564e-39
2.0952199 2.2853568 -6.5565109e-06 4.978564e-39
2.1064477 2.2834692 -6.4373016e-06 4.978564e-39
2.1145175 2.2843664 -6.5565109e-06 4.978564e-39
2.1226256 2.2852678 -6.6757202e-06 4.978564e-39
2.1356843 2.2853577 -6.5565109e-06 4.978564e-39
2.1471844 2.2834477 -6.5565109e-06 4.978564e-39
2.1554501 2.2843556 -6.6757202e-06 4.978564e-39
2.1637557 2.2852678 -6.5565109e-06 4.978564e-39
2.2144475 2.286196 -6.6757202e-06 4.978564e-39
2.223042 2.2871284 -6.6757202e-06 4.978564e-39
2.320457 2.2857461 -6.6757202e-06 4.978564e-39
2.0745511 2.2910573 -6.5565109e-06 4.978564e-39
2.0824687 2.2941959 -6.5565109e-06 4.978564e-39
2.0944204 2.2955723 -6.5565109e-06 4.978564e-39
2.1064477 2.2947092 -6.4373016e-06 4.978564e-39
2.1145175 2.2933798 -6.5565109e-06 4.978564e-39
2.1226256 2.2943029 -6.6757202e-06 4.978564e-39
2.1348655 2.2956963 -6.5565109e-06 4.978564e-39
2.1471844 2.2948232 -6.5565109e-06 4.978564e-39
2.1554501 2.293478 -6.6757202e-06 4.978564e-39
2.1637557 2.2944124 -6.5565109e-06 4.978564e-39
2.2144475 2.2931557 -6.6757202e-06 4.978564e-39
2.2755125 2.2951825 -6.7949295e-06 4.978564e-39
2.0957525 2.3039434 -6.5565109e-06 4.978564e-39
2.1064477 2.3059492 -6.4373016e-06 4.978564e-39
2.1145175 2.3046465 -6.5565109e-06 4.978564e-39
2.1226256 2.3033381 -6.6757202e-06 4.978564e-39
2.1348655 2.3047638 -6.5565109e-06 4.978564e-39
2.1471844 2.3061986 -6.5565109e-06 4.978564e-39
2.1554501 2.3048811 -6.6757202e-06 4.978564e-39
2.1637557 2.3035569 -6.5565109e-06 4.978564e-39
2.1064477 2.3126931 -6.4373016e-06 4.978564e-39
2.1145175 2.3159132 -6.5565109e-06 4.978564e-39
2.1226256 2.3146317 -6.6757202e-06 4.978564e-39
2.1348655 2.3138313 -6.5565109e-06 4.978564e-39
2.1471844 2.315299 -6.5565109e-06 4.978564e-39
2.1554501 2.3162842 -6.6757202e-06 4.978564e-39
2.1637557 2.3149874 -6.5565109e-06 4.978564e-39
2.1226256 2.3236666 -6.6757202e-06 4.978564e-39
2.134047 2.3241577 -6.5565109e-06 4.978564e-39
2.1471844 2.3243995 -6.5565109e-06 4.978564e-39
2.1554501 2.3254066 -6.6757202e-06 4.978564e-39
2.1637557 2.3264182 -6.5565109e-06 4.978564e-39
2.1721015 2.3251431 -6.5565109e-06 4.978564e-39
2.1804881 2.3261592 -6.5565109e-06 4.978564e-39
2.1389587 2.3324761 -6.5565109e-06 4.978564e-39
2.1471844 2.3334999 -6.5565109e-06 4.978564e-39
2.1554501 2.3345289 -6.6757202e-06 4.978564e-39
2.1637557 2.3355627 -6.5565109e-06 4.978564e-39
2.1721015 2.3366015 -6.5565109e-06 4.978564e-39
2.1804881 2.3330512 -6.5565109e-06 4.978564e-39
2.2144475 2.3349133 -6.6757202e-06 4.978564e-39
2.223042 2.3336406 -6.6757202e-06 4.978564e-39
2.231679 2.3346925 -6.6757202e-06 4.978564e-39
2.1471844 2.3403251 -6.5565109e-06 4.978564e-39
2.1554501 2.3436513 -6.6757202e-06 4.978564e-39
2.1637557 2.3447073 -6.5565109e-06 4.978564e-39
2.223042 2.3452682 -6.6757202e-06 4.978564e-39
2.231679 2.3416865 -6.6757202e-06 4.978564e-39
2.1637557 2.3515656 -6.5565109e-06 4.978564e-39
2.2231874 2.3552058 -0.00063746143 4.978564e-39
2.2490816 2.3672707 -6.7949295e-06 4.978564e-39
2.2666581 2.3648546 -6.7949295e-06 4.978564e-39
2.3815005 2.361274 -0.0007346294 4.978564e-39
2.231679 2.378988 -6.6757202e-06 4.978564e-39
2.2449582 2.3734326 -0.00046705501 4.978564e-39
2.4331183 2.3764896 -7.0333481e-06 4.978564e-39
2.231679 2.385982 -6.6757202e-06 4.978564e-39
2.2403588 2.3848295 -6.6757202e-06 4.978564e-39
2.3733919 -2.391516 0.00080848084 4.978564e-39
2.3453045 -2.3233426 0.0021552248 4.978564e-39
2.3110249 -2.2453251 0.0017447756 4.978564e-39
2.3806109 -2.211513 0.0012800522 4.978564e-39
2.1771371 -2.196075 0.0030245276 4.978564e-39
2.01229 -2.1672378 0.0026638315 4.978564e-39
2.0260997 -2.1374693 0.001724096 4.978564e-39
2.268472 -2.1362226 0.0036095781 4.978564e-39
2.2708135 -2.1334984 0.0045705303 4.978564e-39
2.6209092 -2.127965 0.0013177444 4.978564e-39
1.9221969 -2.0953262 0.0036893582 4.978564e-39
2.114238 -2.0815544 0.0010592015 4.978564e-39
2.1758139 -2.0890851 0.0024807102 4.978564e-39
2.104358 -2.076323 0.00030411748 4.978564e-39
2.134402 -2.0775886 0.0035187616 4.978564e-39
2.3874614 -2.0655353 0.0013113682 4.978564e-39
1.8277656 -2.0571501 0.0019534505 4.978564e-39
2.0656955 -2.0469801 0.00058870809 4.978564e-39
1.9502441 -2.0352373 0.0023137454 4.978564e-39
1.9261137 -1.9790395 0.0015450136 4.978564e-39
1.7158731 -1.9644785 0.0048555308 4.978564e-39
2.0654678 -1.9611843 0.001596577 4.978564e-39
2.3653216 -1.9669636 0.00023587074 4.978564e-39
1.7534573 -1.9509629 0.00046036983 4.978564e-39
1.7739418 -1.9594524 0.0014595482 4.978564e-39
1.6986498 -1.9448842 0.0018170989 4.978564e-39
2.3563242 -1.9300996 0.001571899 4.978564e-39
2.1860044 -1.9128426 0.0016071207 4.978564e-39
1.9997014 -1.9017528 0.00094966177 4.978564e-39
2.257808 -1.8816669 0.0025442268 4.978564e-39
2.3085365 -1.8770787 0.0018047182 4.978564e-39
2.4187846 -1.8796124 0.00021346507 4.978564e-39
1.671137 -1.8611718 0.002606767 4.978564e-39
1.6621897 -1.8591012 0.0043898728 4.978564e-39
1.5297811 -1.8412331 0.00076985464 4.978564e-39
1.9710196 -1.845534 0.0043274444 4.978564e-39
2.0215211 -1.8471973 0.00053681555 4.978564e-39
1.4900018 -1.8346858 0.0018917337 4.978564e-39
1.7925233 -1.8337581 0.0028718249 4.978564e-39
1.9170022 -1.8332089 0.00011692398 4.978564e-39
2.2314627 -1.8398048 0.0022217343 4.978564e-39
2.0135548 -1.8284572 0.0041497517 4.978564e-39
1.5048409 -1.8154855 0.00062933331 4.978564e-39
1.4138414 -1.7858455 0.0012373403 4.978564e-39
1.7678568 -1.7879709 0.0048721791 4.978564e-39
1.9879164 -1.7879937 0.00019981823 4.978564e-39
1.6957554 -1.7790799 0.00057700276 4.978564e-39
1.7007871 -1.77408 0.0037276105 4.978564e-39
1.7662468 -1.7798691 0.0030936471 4.978564e-39
2.1465938 -1.7758511 0.00070122158 4.978564e-39
2.0772605 -1.7631361 0.0016338027 4.978564e-39
1.3520144 -1.7540755 0.0036174869 4.978564e-39
1.9603159 -1.7593187 0.0016158989 4.978564e-39
1.4457 -1.744781 0.0047379686 4.978564e-39
1.4748398 -1.7402925 0.0022380687 4.978564e-39
1.5562305 -1.7402377 0.0057111755 4.978564e-39
1.8921547 -1.7409142 0.00043468305 4.978564e-39
1.9948177 -1.7449164 0.0022153831 4.978564e-39
2.2740855 -1.7438921 0.0016770915 4.978564e-39
1.6446855 -1.7398028 0.0034790018 4.978564e-39
1.8209339 -1.7328542 0.0046994514 4.978564e-39
1.8365084 -1.733433 0.00016192683 4.978564e-39
1.9010562 -1.7341968 0.001315911 4.978564e-39
1.4399028 -1.7147443 0.0031234217 4.978564e-39
1.3014617 -1.6927553 0.0055434634 4.978564e-39
2.3796587 -1.6804001 0.001363565 4.978564e-39
1.2197992 -1.6753831 0.0031757287 4.978564e-39
1.2403699 -1.6773536 0.0056895171 4.978564e-39
1.6274393 -1.6724269 0.00092381478 4.978564e-39
2.1883478 -1.6732265 0.0025680228 4.978564e-39
2.2249908 -1.6772244 0.0025621818 4.978564e-39
1.4690131 -1.6641935 0.0049866252 4.978564e-39
1.5518818 -1.6680486 0.00029646154 4.978564e-39
1.7907058 -1.664992 0.0023697296 4.978564e-39
1.9141828 -1.6567376 0.0025057031 4.978564e-39
2.2737093 -1.6587101 0.0014625581 4.978564e-39
1.4175125 -1.6413555 0.00084582611 4.978564e-39
1.5235116 -1.6402756 0.0028795954 4.978564e-39
1.8989162 -1.6495761 0.00079740066 4.978564e-39
1.6287206 -1.6343035 0.00095833529 4.978564e-39
1.8103604 -1.6389863 0.0008675459 4.978564e-39
1.3745646 -1.6244242 0.00073439826 4.978564e-39
1.5690258 -1.6247141 0.00073144509 4.978564e-39
1.5711169 -1.6215154 0.0051481011 4.978564e-39
1.7962435 -1.6269178 0.00074592902 4.978564e-39
2.081723 -1.625321 0.0037140776 4.978564e-39
2.2433152 -1.6240443 0.00043664349 4.978564e-39
1.2030573 -1.611186 0.00028645055 4.978564e-39
1.3602164 -1.6132159 0.0041827923 4.978564e-39
1.3094403 -1.6073755 0.00020217949 4.978564e-39
1.9296687 -1.6065651 0.0041127107 4.978564e-39
1.9837798 -1.6062746 0.00092984521 4.978564e-39
1.5763682 -1.5913123 0.0037668613 4.978564e-39
1.7052035 -1.5929825 0.0008448619 4.978564e-39
1.2933875 -1.5845997 0.0011819153 4.978564e-39
1.587182 -1.5875983 0.0013047627 4.978564e-39
1.6606135 -1.581122 0.003326219 4.978564e-39
1.937856 -1.5845009 0.0031973659 4.978564e-39
1.9673748 -1.5813218 0.0040323185 4.978564e-39
2.1271031 -1.5893171 0.00023010983 4.978564e-39
1.5432913 -1.5753605 0.00041687058 4.978564e-39
1.5506736 -1.5670427 0.0020504722 4.978564e-39
1.5625299 -1.5691508 0.0056607826 4.978564e-39
1.0962397 -1.5596374 0.0034458837 4.978564e-39
1.6816351 -1.5551916 0.0036570195 4.978564e-39
1.7534263 -1.5570214 0.0047230516 4.978564e-39
1.9772391 -1.5545774 0.00014607179 4.978564e-39
2.1339633 -1.5501462 0.00075518852 4.978564e-39
1.2373464 -1.5425007 0.001104901 4.978564e-39
1.5511032 -1.545691 0.0042532529 4.978564e-39
1.7007788 -1.5358658 0.0023166619 4.978564e-39
2.1108 -1.5326457 0.001472274 4.978564e-39
1.1228015 -1.5277643 0.0032733183 4.978564e-39
1.1453308 -1.5107046 0.0058600651 4.978564e-39
1.2885875 -1.5182723 0.0020742668 4.978564e-39
1.6170027 -1.5106025 0.0055141002 4.978564e-39
1.4641712 -1.5001346 0.0010447017 4.978564e-39
1.5477529 -1.5089092 0.0027626476 4.978564e-39
1.6352893 -1.5022759 0.0043723299 4.978564e-39
2.0144401 -1.5085111 0.00094671856 4.978564e-39
2.0588055 -1.5016056 0.0034672641 4.978564e-39
2.1081169 -1.5067945 0.0031295547 4.978564e-39
1.0278422 -1.4952266 0.0057796491 4.978564e-39
1.0630093 -1.4962208 0.0021172694 4.978564e-39
1.5203643 -1.4911815 0.00074403 4.978564e-39
1.6251273 -1.4968964 0.0053900671 4.978564e-39
1.9859345 -1.4865179 0.0030428071 4.978564e-39
2.0423729 -1.4887202 0.0036882365 4.978564e-39
1.0944393 -1.4719318 0.001193922 4.978564e-39
1.6288239 -1.4752839 0.0042245639 4.978564e-39
1.543116 -1.4604212 0.00023145819 4.978564e-39
1.714923 -1.462661 0.005251741 4.978564e-39
0.96927428 -1.4597927 0.005256433 4.978564e-39
1.0738462 -1.4434689 0.0075262822 4.978564e-39
1.2486107 -1.4423476 0.0028095176 4.978564e-39
1.3232695 -1.4438701 0.0031608704 4.978564e-39
1.4237942 -1.4417973 0.001425148 4.978564e-39
1.7021881 -1.4488348 0.0022446937 4.978564e-39
1.71621 -1.4432268 0.0012003817 4.978564e-39
1.9643147 -1.4420747 0.0013639565 4.978564e-39
1.2829303 -1.4273382 0.0014154675 4.978564e-39
1.5977848 -1.4239396 0.0012398004 4.978564e-39
1.6446766 -1.4295951 0.0006592609 4.978564e-39
0.91255021 -1.417312 0.0033501068 4.978564e-39
1.1698645 -1.4124806 0.0065711378 4.978564e-39
1.3931674 -1.4126064 0.0046830392 4.978564e-39
1.4383214 -1.4171611 0.0052588792 4.978564e-39
1.8422562 -1.411533 0.0047443681 4.978564e-39
2.2912025 -1.4105586 0.0010118667 4.978564e-39
1.0850914 -1.4022657 0.0047604935 4.978564e-39
1.2530841 -1.4083201 0.0053473348 4.978564e-39
1.5691335 -1.4068816 0.0019968776 4.978564e-39
1.5738146 -1.4079564 0.0023136146 4.978564e-39
2.3929405 -1.4064548 0.00055492361 4.978564e-39
0.91639662 -1.39381 0.005592091 4.978564e-39
1.3232268 -1.3996153 0.00056941248 4.978564e-39
1.7391022 -1.3910002 0.0017570764 4.978564e-39
0.84320349 -1.3880197 0.0006901726 4.978564e-39
1.6291238 -1.3892485 0.00076630147 4.978564e-39
0.96641225 -1.3719829 0.0050395308 4.978564e-39
1.0495263 -1.3768002 0.0075158123 4.978564e-39
1.0523969 -1.3781376 0.0036623774 4.978564e-39
1.0797985 -1.3738807 0.0048683384 4.978564e-39
1.9318101 -1.3710506 0.0053180885 4.978564e-39
1.6106157 -1.3693321 0.0056371628 4.978564e-39
1.9286981 -1.3696656 0.0010911204 4.978564e-39
1.3365196 -1.3595616 0.0045797043 4.978564e-39
1.7453961 -1.3515859 0.0019558917 4.978564e-39
1.8046472 -1.3557078 0.0033359148 4.978564e-39
1.9379056 -1.3501235 0.0039569782 4.978564e-39
2.3066759 -1.3585311 0.0023707207 4.978564e-39
0.81563002 -1.3490264 0.0028180261 4.978564e-39
1.379023 -1.3441085 7.3622614e-05 4.978564e-39
2.0613916 -1.34903 0.002190273 4.978564e-39
2.1151226 -1.3490115 0.0014624742 4.978564e-39
1.0939536 -1.3345449 0.0029165796 4.978564e-39
0.9641903 -1.3204483 0.0028657969 4.978564e-39
1.1221496 -1.3270181 0.0060253614 4.978564e-39
1.6184192 -1.3274951 0.00064829021 4.978564e-39
1.6272092 -1.3208554 0.0027646087 4.978564e-39
1.8604852 -1.3225068 0.0026400022 4.978564e-39
0.91987199 -1.316152 0.0061014006 4.978564e-39
0.98970979 -1.3108526 0.00054911408 4.978564e-39
1.254102 -1.3136176 0.0054460056 4.978564e-39
1.289757 -1.3142369 0.0059821079 4.978564e-39
1.7353499 -1.3156054 0.0010142311 4.978564e-39
1.8325653 -1.3173714 0.00033943163 4.978564e-39
1.8746037 -1.3116609 0.0037259869 4.978564e-39
0.86976582 -1.307037 0.0010055486 4.978564e-39
1.5298678 -1.3015525 0.0010844878 4.978564e-39
1.9047148 -1.3046325 0.0026117195 4.978564e-39
2.0499887 -1.3013681 0.00056000578 4.978564e-39
0.91829151 -1.2919412 0.0048671821 4.978564e-39
1.5661527 -1.2981246 0.00081476744 4.978564e-39
1.6267027 -1.2902888 0.0025364948 4.978564e-39
1.9196416 -1.2957315 0.0030353495 4.978564e-39
1.988259 -1.2991571 0.0010509678 4.978564e-39
2.3584874 -1.2954303 4.0246297e-05 4.978564e-39
1.180037 -1.275167 0.0019288036 4.978564e-39
1.6391698 -1.2757747 0.0025810241 4.978564e-39
1.7995341 -1.2760825 0.0016405798 4.978564e-39
0.96653295 -1.2635915 0.0060804901 4.978564e-39
1.1702039 -1.2617152 0.0013916136 4.978564e-39
2.0698299 -1.2624915 0.00046388712 4.978564e-39
2.3774626 -1.2682636 0.001146169 4.978564e-39
1.065776 -1.2405565 0.0060253292 4.978564e-39
1.2866142 -1.2461287 0.00077783392 4.978564e-39
1.3095819 -1.2496223 0.0054992712 4.978564e-39
2.0635328 -1.245382 0.0020950907 4.978564e-39
1.4390851 -1.2354198 0.0056864605 4.978564e-39
1.5866331 -1.2349068 0.0058576129 4.978564e-39
1.6739539 -1.2340374 0.0024394337 4.978564e-39
0.86734712 -1.2286032 0.0043131597 4.978564e-39
0.93962562 -1.2212198 0.0042181122 4.978564e-39
2.1089027 -1.2289484 0.001318806 4.978564e-39
0.94650626 -1.2182705 0.0062457006 4.978564e-39
1.6256177 -1.2185917 0.0020867628 4.978564e-39
1.1964746 -1.2005841 0.0040505296 4.978564e-39
1.9476798 -1.2080986 0.00012988548 4.978564e-39
1.9712284 -1.2062706 0.0027797064 4.978564e-39
0.86578071 -1.1917711 0.0051376503 4.978564e-39
1.5315707 -1.1933272 0.0047702412 4.978564e-39
2.4758887 -1.1919569 0.0018395272 4.978564e-39
1.4956529 -1.1891514 0.0049513415 4.978564e-39
0.8499729 -1.1795431 0.0036411548 4.978564e-39
0.91280383 -1.1602753 0.00057492638 4.978564e-39
1.336332 -1.1605345 0.0055578863 4.978564e-39
1.5185114 -1.1676089 9.8688113e-05 4.978564e-39
2.0570605 -1.1682954 0.00089392252 4.978564e-39
0.87975699 -1.1590899 0.00018654818 4.978564e-39
1.9966097 -1.1593636 0.0023110074 4.978564e-39
2.1005807 -1.1570518 0.0040008212 4.978564e-39
0.94522923 -1.1495317 0.0059131114 4.978564e-39
1.5251955 -1.1495523 0.0013498412 4.978564e-39
1.9035695 -1.1419694 0.0032444487 4.978564e-39
1.0346563 -1.1332916 0.0021152238 4.978564e-39
1.1528455 -1.1332264 0.0057037696 4.978564e-39
1.390355 -1.137354 0.0050827092 4.978564e-39
0.9101457 -1.1154723 0.0032859836 4.978564e-39
0.95757478 -1.1136841 0.0055500609 4.978564e-39
1.0479205 -1.1130067 0.0013447277 4.978564e-39
1.2563444 -1.1140209 0.0015297078 4.978564e-39
1.2752852 -1.1126938 0.0050532771 4.978564e-39
2.1452985 -1.1176522 0.0032787165 4.978564e-39
2.4517663 -1.114001 0.0012216161 4.978564e-39
1.5396907 -1.1086043 0.0045484081 4.978564e-39
1.5715746 -1.1078768 0.0048223156 4.978564e-39
1.744082 -1.1087226 0.0020664106 4.978564e-39
0.86893922 -1.0975116 0.0052567199 4.978564e-39
1.0355226 -1.0994396 0.00104399 4.978564e-39
1.6647568 -1.094709 0.0012927963 4.978564e-39
2.2038374 -1.0987078 9.2744587e-05 4.978564e-39
1.4572499 -1.0800371 0.0047694803 4.978564e-39
2.3553801 -1.0885376 0.00076118059 4.978564e-39
0.93032265 -1.0703427 0.0070812008 4.978564e-39
1.3582122 -1.0758963 0.0056773876 4.978564e-39
1.444616 -1.0782254 0.0053886333 4.978564e-39
1.1952744 -1.0682937 0.0044162632 4.978564e-39
1.3254039 -1.0663682 0.0029323753 4.978564e-39
1.5627888 -1.0694001 0.0040078955 4.978564e-39
1.9899646 -1.0638592 0.0025239531 4.978564e-39
0.89482814 -1.0570503 0.00016275109 4.978564e-39
0.92274982 -1.0516566 0.0043319794 4.978564e-39
1.1002973 -1.0525647 0.0036290821 4.978564e-39
1.1705214 -1.0540308 0.0066138278 4.978564e-39
1.416656 -1.0575802 0.0050947014 4.978564e-39
1.8227127 -1.0417956 0.0011128663 4.978564e-39
1.9305961 -1.0447791 0.0036131586 4.978564e-39
2.1341791 -1.0420812 0.00018323815 4.978564e-39
1.6834151 -1.0392575 0.0028280572 4.978564e-39
2.0860691 -1.0309137 0.0016208609 4.978564e-39
1.7453777 -1.0190635 0.00066967931 4.978564e-39
1.8451173 -1.010769 0.00068996201 4.978564e-39
2.168488 -1.0187203 0.0033441777 4.978564e-39
0.83823085 -1.0003657 0.0070774299 4.978564e-39
0.90529287 -1.0045464 0.0069225244 4.978564e-39
1.0959127 -1.0010438 0.0021901645 4.978564e-39
1.1398604 -0.99213743 0.0042358427 4.978564e-39
1.276868 -0.99222577 0.00096213253 4.978564e-39
1.5469811 -0.99959046 0.0032231039 4.978564e-39
1.8376694 -0.9930355 0.00015728532 4.978564e-39
1.6296481 -0.98289716 0.0016689163 4.978564e-39
1.646963 -0.98946172 0.0030126497 4.978564e-39
1.8258818 -0.98645169 0.0033634179 4.978564e-39
2.1540446 -0.98002231 0.0015109864 4.978564e-39
2.1915815 -0.98381305 0.0040755188 4.978564e-39
2.1911099 -0.97922564 0.0028922691 4.978564e-39
2.4376647 -0.97127348 0.00020565439 4.978564e-39
1.405973 -0.96845937 0.00086546742 4.978564e-39
1.0963768 -0.95404232 0.002614877 4.978564e-39
1.2414172 -0.95055616 0.0019368094 4.978564e-39
1.4052929 -0.9568454 0.0010235588 4.978564e-39
1.8520504 -0.95095843 0.0004021783 4.978564e-39
0.91124338 -0.94917738 0.0015640268 4.978564e-39
1.1396083 -0.94725466 0.0072589382 4.978564e-39
1.8933939 -0.94904101 0.0028436999 4.978564e-39
0.93593717 -0.93643486 0.006505433 4.978564e-39
1.6779556 -0.92375809 0.0042215395 4.978564e-39
1.68722 -0.9271884 0.0049882918 4.978564e-39
1.8951442 -0.92905712 0.0011578321 4.978564e-39
1.052161 -0.91200471 0.0022761568 4.978564e-39
1.2925891 -0.91626108 0.003066635 4.978564e-39
2.2198043 -0.91641057 0.00056308112 4.978564e-39
0.89491391 -0.89423007 0.0038576298 4.978564e-39
0.82465839 -0.88280433 0.0071391123 4.978564e-39
1.9853936 -0.88885021 0.0023260482 4.978564e-39
1.225989 -0.87685305 0.0060093855 4.978564e-39
1.3229245 -0.87934035 0.0034549639 4.978564e-39
1.6080878 -0.87089247 0.0014481269 4.978564e-39
2.3964727 -0.87844056 0.00027232271 4.978564e-39
1.5580323 -0.86225045 0.0015899423 4.978564e-39
1.6834434 -0.86286539 0.00031619193 4.978564e-39
2.3579669 -0.86184192 0.0015801532 4.978564e-39
0.89907432 -0.85838729 0.006607045 4.978564e-39
1.478999 -0.85265559 0.0051682731 4.978564e-39
1.9540334 -0.85074455 0.0022052305 4.978564e-39
2.007726 -0.85608268 0.0014798065 4.978564e-39
2.0680649 -0.85410959 0.0013308958 4.978564e-39
1.7121474 -0.84070724 0.0058004572 4.978564e-39
1.9344701 -0.84586489 0.0045803715 4.978564e-39
1.0655788 -0.83495098 0.0018670904 4.978564e-39
1.1065706 -0.83930606 0.0061455397 4.978564e-39
1.3748099 -0.83804673 0.0051069111 4.978564e-39
2.109514 -0.83751273 0.0023980781 4.978564e-39
1.784224 -0.82842696 0.0049890568 4.978564e-39
1.8287101 -0.81633884 0.0047000479 4.978564e-39
1.9035672 -0.81999665 0.0019431483 4.978564e-39
2.1602204 -0.81040072 0.0031739362 4.978564e-39
2.2337201 -0.81432533 0.00019001203 4.978564e-39
2.3857338 -0.81036508 0.0013632549 4.978564e-39
1.725656 -0.80001652 0.0005785267 4.978564e-39
1.9755248 -0.80521971 0.0025554444 4.978564e-39
1.8196058 -0.79633594 0.0049969996 4.978564e-39
1.748221 -0.77395636 0.0039998684 4.978564e-39
1.983837 -0.77237707 0.0017223529 4.978564e-39
2.1150603 -0.76975775 0.0019061915 4.978564e-39
1.576555 -0.75878859 0.0013168388 4.978564e-39
2.0335159 -0.74244988 0.0025320177 4.978564e-39
2.076036 -0.74908549 0.0017792748 4.978564e-39
1.5650429 -0.7372573 0.002959318 4.978564e-39
1.6754465 -0.73849422 0.00019364075 4.978564e-39
1.9034057 -0.71260583 0.0018883391 4.978564e-39
2.0363653 -0.70256084 0.0019878019 4.978564e-39
2.2602704 -0.7083379 0.0014978276 4.978564e-39
1.8677088 -0.69513416 0.00060160097 4.978564e-39
1.6636252 -0.68001199 0.0045398409 4.978564e-39
2.3220239 -0.68472135 0.0014612492 4.978564e-39
2.3586857 -0.68753952 3.0819843e-05 4.978564e-39
2.4357901 -0.68107694 0.00039271518 4.978564e-39
0.55243343 -0.67771566 0.0059049614 4.978564e-39
1.9614096 -0.67094332 8.1863058e-05 4.978564e-39
2.1097195 -0.67005712 0.00043873923 4.978564e-39
1.7883071 -0.66240621 0.0009237164 4.978564e-39
2.0424495 -0.66842544 0.0015439256 4.978564e-39
0.54806477 -0.63167429 0.0056549613 4.978564e-39
1.7233187 -0.63131708 0.0033655206 4.978564e-39
1.81224 -0.63548398 0.0027960842 4.978564e-39
2.1921144 -0.63062531 0.0021406144 4.978564e-39
0.54286826 -0.62504113 0.0067117251 4.978564e-39
1.5489869 -0.62899405 0.0024833244 4.978564e-39
1.5755875 -0.62839234 0.0015397015 4.978564e-39
2.0827248 -0.62990957 0.0031024225 4.978564e-39
1.8128573 -0.61512959 0.0048592379 4.978564e-39
1.6546508 -0.60326993 0.00021071639 4.978564e-39
1.8955628 -0.6061964 0.0033226814 4.978564e-39
2.021111 -0.6030913 0.0011036101 4.978564e-39
2.1779647 -0.60349751 0.00017242257 4.978564e-39
0.51747906 -0.57973421 0.003591032 4.978564e-39
2.299387 -0.57820964 0.00047365448 4.978564e-39
2.3416998 -0.56438416 0.0012855198 4.978564e-39
1.6760931 -0.55646819 0.0039381427 4.978564e-39
1.7329677 -0.55332458 0.0028922416 4.978564e-39
1.8229309 -0.54037046 0.003812385 4.978564e-39
1.5930758 -0.5268473 0.0018179533 4.978564e-39
2.4886827 -0.52113432 0.0022016745 4.978564e-39
1.7825742 -0.51313674 0.00042359161 4.978564e-39
1.9464376 -0.51976979 0.0022238472 4.978564e-39
2.1663859 -0.50011539 0.0011014147 4.978564e-39
2.4491034 -0.5094043 0.0011779257 4.978564e-39
1.8663086 -0.49067789 0.00029534759 4.978564e-39
1.5850828 -0.47529742 0.0036746832 4.978564e-39
1.6129411 -0.46580976 0.0030521522 4.978564e-39
1.9212502 -0.46708047 0.0031719434 4.978564e-39
1.6525278 -0.45297149 0.0030615053 4.978564e-39
1.8278246 -0.44250181 0.0028280248 4.978564e-39
1.8613865 -0.44862375 0.0023045044 4.978564e-39
2.0523765 -0.44949019 0.0012840301 4.978564e-39
1.8150243 -0.43681908 0.0037556484 4.978564e-39
2.3861589 -0.43820241 0.00099759805 4.978564e-39
1.6475915 -0.42156714 0.0052022124 4.978564e-39
1.8314092 -0.42374218 0.002270885 4.978564e-39
1.973526 -0.42885408 0.00216125 4.978564e-39
0.50259459 -0.4002732 0.0075743194 4.978564e-39
1.9420618 -0.40193987 0.0029071879 4.978564e-39
2.298898 -0.40630794 0.0006186199 4.978564e-39
2.4093404 -0.40304014 0.0034194174 4.978564e-39
1.5570892 -0.39533845 0.0050090253 4.978564e-39
1.8772066 -0.39211136 0.0023154723 4.978564e-39
2.2029052 -0.39321011 0.0014215793 4.978564e-39
0.53625226 -0.38970381 0.0054638325 4.978564e-39
2.0035143 -0.38424772 0.0031957026 4.978564e-39
1.7559747 -0.37386554 0.0027676341 4.978564e-39
2.1707585 -0.37874204 0.00061548332 4.978564e-39
2.2364695 -0.37721482 0.00060622528 4.978564e-39
1.8572814 -0.36016506 0.0040911566 4.978564e-39
1.5876728 -0.35169029 0.0020554729 4.978564e-39
2.1004169 -0.34314382 0.0037163629 4.978564e-39
1.8618907 -0.33855933 0.0031993333 4.978564e-39
2.0254755 -0.32647631 0.0016054896 4.978564e-39
2.2881677 -0.32527125 0.0017534015 4.978564e-39
1.5666953 -0.31975198 0.0054048011 4.978564e-39
1.8342665 -0.31815213 2.7414213e-05 4.978564e-39
1.9339716 -0.31900713 0.0017249797 4.978564e-39
2.0001404 -0.31359011 0.0012395491 4.978564e-39
1.6212038 -0.30813843 0.0056596142 4.978564e-39
1.9487902 -0.30898532 0.0014509885 4.978564e-39
2.3791656 -0.30808026 0.00068730698 4.978564e-39
2.6056173 -0.30944115 0.00086888799 4.978564e-39
1.9044151 -0.29375523 0.0024817225 4.978564e-39
1.755995 -0.28152549 0.0025391756 4.978564e-39
0.50508112 -0.2741119 0.00081719458 5.3549388e-39
0.51462829 -0.27483174 0.00070587546 5.447133e-39
0.52487403 -0.27452868 0.00075279869 5.4471344e-39
0.53506935 -0.27450255 0.00075682002 5.4471344e-39
0.54502994 -0.27468649 0.00072841131 5.53933e-39
0.553747 -0.27453157 0.00075236236 5.53933e-39
2.0436673 -0.27461773 0.0032130599 4.978564e-39
0.50500405 -0.26511776 0.0022082091 5.447133e-39
0.51507854 -0.26533055 0.0021752715 5.447133e-39
0.52476346 -0.26460475 0.0022875369 5.4471344e-39
0.53521156 -0.26525027 0.0021877498 5.4474931e-39
0.54480374 -0.26528972 0.0021816716 5.53933e-39
0.55295521 -0.26495591 0.0022333462 5.53933e-39
